ply
format ascii 1.0
element vertex 714
property float x
property float y
property float z
property uchar red
property uchar green
property uchar blue
end_header
-3.6614561080932617 1.5388790369033813 11.131627082824707 123 110 134
-3.6614561080932617 1.5388790369033813 11.131627082824707 123 110 134
-1.7183419466018677 1.6036604642868042 5.256755828857422 68 40 50
-2.005229949951172 -0.15254215896129608 6.264461517333984 61 54 77
-3.671813726425171 -3.1703617572784424 11.472819328308105 89 68 83
-3.6109774112701416 -2.567549228668213 11.308971405029297 58 48 67
-3.591614007949829 -4.688850402832031 11.489495277404785 93 74 88
-1.60406494140625 1.590383768081665 5.153384685516357 65 39 50
-3.4210009574890137 -1.381020426750183 11.038960456848145 70 56 69
-3.4056782722473145 -1.5608612298965454 11.022981643676758 88 73 84
-3.4056782722473145 -1.5608612298965454 11.022981643676758 88 73 84
-2.712407112121582 1.28830087184906 8.796768188476562 55 41 46
-1.5809053182601929 1.5527892112731934 5.13957405090332 152 111 132
-3.373225212097168 -1.2882755994796753 10.991022109985352 71 58 73
-3.256023406982422 1.095590591430664 10.655649185180664 152 169 238
-1.5785788297653198 1.5419310331344604 5.186664581298828 101 64 84
-1.5785788297653198 1.5419310331344604 5.186664581298828 101 64 84
-3.182724714279175 1.0280849933624268 10.561823844909668 40 33 53
-3.2601993083953857 -1.6292262077331543 10.833972930908203 53 38 49
-3.2601993083953857 -1.6292262077331543 10.833972930908203 53 38 49
-3.1681838035583496 1.0474960803985596 10.552969932556152 21 44 104
-3.3276424407958984 -3.9059998989105225 11.092583656311035 81 66 85
-3.3276424407958984 -3.9059998989105225 11.092583656311035 81 66 85
-2.5896222591400146 1.1471847295761108 8.677960395812988 32 30 35
-3.2315776348114014 -2.85707688331604 10.898425102233887 121 104 124
-3.226443290710449 -3.1157264709472656 10.899280548095703 127 114 138
-1.5099222660064697 1.5817301273345947 5.12082052230835 84 45 55
-3.1298186779022217 -0.7740428447723389 10.613893508911133 45 34 57
-2.4849424362182617 1.180173397064209 8.550851821899414 38 27 32
-2.9938108921051025 -0.7511559724807739 10.433899879455566 119 102 123
-2.9741122722625732 0.5112284421920776 10.375027656555176 59 50 68
-3.054783582687378 -2.581138849258423 10.672521591186523 73 59 71
-2.9468460083007812 0.7050727605819702 10.314830780029297 71 58 68
-2.5085017681121826 0.08491767942905426 8.83000373840332 60 26 32
-2.5138251781463623 0.008288093842566013 8.865291595458984 65 25 27
-2.9727606773376465 -2.339848041534424 10.603793144226074 121 99 118
-2.938338279724121 -2.370586633682251 10.541056632995605 61 41 52
-2.4457390308380127 -0.009786230511963367 8.801362991333008 141 92 108
-2.3206429481506348 1.0765926837921143 8.378277778625488 52 35 42
-2.9394989013671875 -4.090924263000488 10.647966384887695 64 49 62
-2.9394989013671875 -4.090924263000488 10.647966384887695 64 49 62
-2.301530122756958 1.2387032508850098 8.336810111999512 50 29 38
-2.370771884918213 1.0180212259292603 8.615071296691895 67 49 54
-2.2723214626312256 1.2220077514648438 8.288949966430664 59 35 41
-2.2723214626312256 1.2220077514648438 8.288949966430664 59 35 41
-2.271348714828491 1.0775166749954224 8.30617618560791 60 48 53
-2.1714251041412354 1.4093040227890015 7.94526481628418 43 63 104
-2.835775375366211 -2.5911803245544434 10.380330085754395 81 56 68
-2.8699400424957275 -3.646979570388794 10.51976203918457 87 72 85
-2.826235055923462 -2.3455934524536133 10.367741584777832 62 43 52
-2.3957021236419678 0.7880188226699829 8.90746021270752 97 64 73
-2.1209304332733154 1.3610386848449707 7.908857345581055 84 55 62
-2.7446203231811523 -1.7512832880020142 10.267754554748535 62 47 59
-2.7447893619537354 -2.3477072715759277 10.282557487487793 50 35 46
-2.3573930263519287 0.20749273896217346 8.847803115844727 41 16 16
-1.3852968215942383 1.336911678314209 5.212324142456055 91 52 67
-1.3598061800003052 1.580839991569519 5.116929054260254 95 50 63
-2.7435762882232666 -3.8432071208953857 10.368160247802734 77 64 83
-2.7435762882232666 -3.8432071208953857 10.368160247802734 77 64 83
-1.3741719722747803 1.4084179401397705 5.213907718658447 88 47 66
-2.6294798851013184 -0.28860899806022644 9.985010147094727 44 34 44
-2.6294798851013184 -0.28860899806022644 9.985010147094727 44 34 44
-2.6424131393432617 -1.3098944425582886 10.045021057128906 74 52 63
-2.6424131393432617 -1.3098944425582886 10.045021057128906 74 52 63
-2.137127637863159 1.0248018503189087 8.170659065246582 124 81 101
-1.353988528251648 1.3561502695083618 5.20335054397583 73 50 72
-2.6336612701416016 -2.338020086288452 10.152600288391113 71 52 60
-2.655026912689209 -3.6270172595977783 10.248867988586426 63 50 64
-2.2968204021453857 -0.1065923422574997 8.879589080810547 151 102 120
-2.6192572116851807 -3.56295108795166 10.157233238220215 117 94 115
-2.241117238998413 1.0286247730255127 8.697863578796387 58 35 39
-2.5997626781463623 -3.5944912433624268 10.139147758483887 71 60 73
-2.5997626781463623 -3.5944912433624268 10.139147758483887 71 60 73
-2.6161048412323 -3.8398215770721436 10.215452194213867 77 61 80
-2.5165536403656006 -2.3261325359344482 9.961294174194336 70 51 59
-2.5165536403656006 -2.3261325359344482 9.961294174194336 70 51 59
-2.5370659828186035 -4.083404064178467 10.153511047363281 84 62 75
-2.5370659828186035 -4.083404064178467 10.153511047363281 84 62 75
-2.4899988174438477 -2.9572458267211914 10.000410079956055 87 67 86
-1.2956138849258423 1.4140832424163818 5.205227851867676 87 50 68
-2.4825077056884766 -2.8101894855499268 9.995458602905273 63 48 59
-2.3910298347473145 -0.5841175317764282 9.710378646850586 72 50 63
-1.2728312015533447 1.4468578100204468 5.199432849884033 75 45 65
-1.2728312015533447 1.4468578100204468 5.199432849884033 75 45 65
-2.0180840492248535 -0.48999905586242676 8.372729301452637 107 82 96
-1.9990326166152954 -1.1400582790374756 8.313457489013672 54 23 25
-2.2960963249206543 -0.9282766580581665 9.612906455993652 67 50 67
-2.0496742725372314 -0.367759644985199 8.593626022338867 45 28 34
-2.3419647216796875 -3.7872533798217773 9.823142051696777 78 63 77
-1.202345371246338 1.5801571607589722 5.117375373840332 94 52 60
-1.21250319480896 1.4468978643417358 5.201135635375977 62 38 56
-1.21250319480896 1.4468978643417358 5.201135635375977 62 38 56
-1.2185852527618408 1.1573280096054077 5.2295989990234375 83 44 61
-2.2555644512176514 -2.77616810798645 9.697138786315918 66 53 68
-1.8152064085006714 -1.7736091613769531 7.855504512786865 60 30 33
-1.795801043510437 -1.817025065422058 7.783331394195557 79 40 49
-1.8715394735336304 -1.694146752357483 8.131479263305664 43 26 33
-1.1932324171066284 1.411069393157959 5.202092170715332 79 42 66
-1.8646762371063232 -1.4177515506744385 8.187646865844727 116 93 106
-1.9844082593917847 0.43031278252601624 8.726045608520508 54 21 27
-1.9844082593917847 0.43031278252601624 8.726045608520508 54 21 27
-1.8586348295211792 -1.0577934980392456 8.250824928283691 57 28 32
-1.8952314853668213 -0.4367421269416809 8.419648170471191 76 38 43
-1.886681079864502 -0.529241681098938 8.394719123840332 38 19 21
-2.142277956008911 -3.0127921104431152 9.554244995117188 80 68 84
-1.706921100616455 1.0131213665008545 7.6432976722717285 66 33 44
-2.130127191543579 -2.9831254482269287 9.562066078186035 119 99 120
-1.8990298509597778 0.41554898023605347 8.601452827453613 47 24 33
-2.090700387954712 -2.9172675609588623 9.51006031036377 123 101 120
-1.7194842100143433 0.9315208792686462 7.858344078063965 101 55 64
-1.7194842100143433 0.9315208792686462 7.858344078063965 101 55 64
-1.8757201433181763 0.6764549016952515 8.587953567504883 58 21 29
-1.129952311515808 1.3519477844238281 5.202989101409912 65 32 48
-1.5850111246109009 1.2358137369155884 7.311203479766846 76 50 58
-1.5850111246109009 1.2358137369155884 7.311203479766846 76 50 58
-1.7334223985671997 -1.701702356338501 8.069178581237793 35 18 21
-2.0275566577911377 -3.3357162475585938 9.447931289672852 75 57 76
-1.6323238611221313 -1.8648396730422974 7.634674072265625 111 62 67
-1.9833366870880127 -2.6990013122558594 9.34103775024414 72 58 81
-1.9724301099777222 -2.7778818607330322 9.327315330505371 82 65 81
-1.084420919418335 1.5343533754348755 5.1628522872924805 119 78 99
-1.5097225904464722 1.2489750385284424 7.2234368324279785 61 44 54
-1.0835548639297485 1.3848170042037964 5.203773498535156 141 94 118
-1.5646655559539795 -1.903411626815796 7.557156562805176 113 68 73
-1.7099086046218872 -0.1930956244468689 8.34122085571289 105 66 75
-1.0371748208999634 1.577265739440918 5.104771614074707 90 48 58
-1.851910948753357 -2.935289144515991 9.199525833129883 80 67 86
-1.5212780237197876 -0.9327386021614075 7.575071334838867 117 66 78
-1.6713221073150635 0.20043659210205078 8.324625015258789 76 35 44
-1.528566598892212 -1.1872249841690063 7.670282363891602 91 64 78
-1.546090841293335 -1.480483889579773 7.796772480010986 112 68 81
-1.466931939125061 -1.6854252815246582 7.446520805358887 42 18 21
-1.4967167377471924 -1.1740649938583374 7.67590856552124 55 26 31
-1.7626981735229492 -3.0904769897460938 9.121089935302734 78 54 75
-1.4676200151443481 -1.1042828559875488 7.651400089263916 54 25 34
-1.4647083282470703 -2.3094682693481445 7.745738983154297 53 32 45
-0.975311279296875 1.0408560037612915 5.169541835784912 112 68 80
-1.4623852968215942 -0.1935587227344513 7.78368616104126 57 28 34
-1.4623852968215942 -0.1935587227344513 7.78368616104126 57 28 34
-1.4107966423034668 -1.2818734645843506 7.518185615539551 103 68 83
-1.3746243715286255 -1.7195545434951782 7.360531806945801 39 21 28
-1.3070348501205444 1.2179583311080933 6.995943069458008 61 45 56
-1.1563606262207031 1.1001222133636475 6.209407806396484 65 49 55
-1.4161911010742188 -1.1521803140640259 7.616109371185303 43 18 24
-1.4291231632232666 -2.3266916275024414 7.690817356109619 48 26 40
-1.422833800315857 -1.4784294366836548 7.66618537902832 102 70 92
-1.6772879362106323 -3.530184030532837 9.044692993164062 80 64 84
-1.4293410778045654 0.20322005450725555 7.77044677734375 72 33 43
-1.3953022956848145 -2.317204475402832 7.657881736755371 137 86 101
-1.3638086318969727 -0.4365174174308777 7.494934558868408 99 66 78
-1.3829658031463623 -0.8796714544296265 7.604395866394043 88 50 58
-0.793428361415863 -0.12392929196357727 4.3905205726623535 46 24 25
-1.4064579010009766 -0.15465474128723145 7.764749526977539 46 24 25
-0.9294305443763733 1.5307438373565674 5.155099868774414 128 78 100
-0.9294305443763733 1.5307438373565674 5.155099868774414 128 78 100
-1.3812106847763062 -0.8479647040367126 7.686181545257568 21 11 13
-0.92551189661026 1.0409914255142212 5.17209529876709 111 65 77
-1.3739423751831055 -0.027461010962724686 7.730056285858154 66 32 41
-1.3612030744552612 -0.23027575016021729 7.671186923980713 95 68 84
-1.3065111637115479 -2.057450771331787 7.4297685623168945 38 22 26
-1.3019689321517944 -1.8724697828292847 7.436936378479004 125 72 83
-1.2332432270050049 0.9309780597686768 7.046945095062256 77 42 53
-0.9025447964668274 1.5317151546478271 5.166119575500488 107 65 82
-0.9025447964668274 1.5317151546478271 5.166119575500488 107 65 82
-1.34335458278656 -1.0303103923797607 7.696994304656982 50 20 24
-1.3381513357162476 -0.2107478529214859 7.668713569641113 49 21 26
-1.2185256481170654 0.3174501955509186 7.059730052947998 157 146 156
-1.2179884910583496 0.9028668403625488 7.066514492034912 111 130 173
-1.28551185131073 -0.4378780722618103 7.4746928215026855 93 57 65
-1.1740130186080933 1.2136486768722534 6.821385860443115 62 45 57
-1.1726535558700562 1.1902800798416138 6.823660373687744 49 42 51
-1.2927473783493042 -1.2244466543197632 7.5637125968933105 27 18 21
-1.2119686603546143 0.35774847865104675 7.114157199859619 21 13 11
-1.2956827878952026 -0.5327496528625488 7.634401321411133 118 64 75
-1.264554500579834 -0.4721319377422333 7.470252513885498 46 20 21
-1.1916844844818115 0.31147241592407227 7.0903520584106445 179 173 168
-0.8821209669113159 1.0885437726974487 5.266516208648682 56 28 29
-1.1943724155426025 -2.0608623027801514 7.132210731506348 111 65 73
-1.2527596950531006 0.633721113204956 7.482169151306152 47 22 30
-1.1668626070022583 0.8867127895355225 6.989841938018799 117 134 184
-1.2612138986587524 -0.7670653462409973 7.616804122924805 61 29 39
-1.1603446006774902 0.42989325523376465 7.0167436599731445 52 34 27
-1.2144073247909546 -0.3734082281589508 7.4002790451049805 41 20 17
-1.186143159866333 -1.9246457815170288 7.2310309410095215 131 90 106
-1.1355938911437988 0.9233678579330444 6.976938724517822 75 40 53
-1.1583551168441772 0.23953132331371307 7.131282806396484 173 172 179
-1.2228318452835083 -0.7909346222877502 7.568655967712402 116 66 78
-0.8325898051261902 1.5902128219604492 5.178286075592041 71 57 66
-0.8491662740707397 1.2725062370300293 5.282081604003906 75 45 66
-1.213200330734253 -0.6040811538696289 7.566874980926514 106 64 74
-1.1320300102233887 0.28520047664642334 7.060953617095947 82 79 80
-1.1320300102233887 0.28520047664642334 7.060953617095947 82 79 80
-1.1545466184616089 -2.0419769287109375 7.2101945877075195 42 20 23
-1.3874062299728394 -3.501791477203369 8.69474983215332 71 54 66
-0.844277024269104 1.4004558324813843 5.29478645324707 93 51 66
-1.326653242111206 -1.1854724884033203 8.36164379119873 81 48 61
-1.144321084022522 0.2041655331850052 7.234306812286377 80 39 43
-1.1346435546875 -1.8964699506759644 7.239809036254883 68 33 40
-1.179656744003296 -0.6821300983428955 7.528598785400391 104 58 67
-1.0952380895614624 0.27341827750205994 7.047518253326416 179 171 155
-1.0816965103149414 0.41888999938964844 6.994539260864258 48 28 23
-0.8211333751678467 1.247921347618103 5.329392433166504 79 44 64
-0.8211333751678467 1.247921347618103 5.329392433166504 79 44 64
-1.153307557106018 -0.7233551740646362 7.4831929206848145 46 20 24
-1.1092950105667114 -0.032919835299253464 7.243631362915039 180 167 146
-1.0992704629898071 0.2332182377576828 7.1997880935668945 147 141 158
-1.0699026584625244 0.29407820105552673 7.0360002517700195 110 96 88
-1.1000577211380005 -1.8894717693328857 7.234942436218262 114 64 79
-1.042214035987854 0.9090564846992493 6.857831001281738 136 92 112
-1.1271612644195557 -0.745500385761261 7.4526143074035645 102 59 66
-1.055851936340332 0.4036295711994171 6.985006332397461 154 148 135
-1.0848429203033447 -1.9180738925933838 7.189707279205322 48 22 31
-1.0561983585357666 0.36620718240737915 7.003344535827637 117 105 110
-1.1331419944763184 0.13255524635314941 7.516850471496582 66 31 35
-1.0701137781143188 -1.9925312995910645 7.104262351989746 42 19 27
-1.6965198516845703 1.4727967977523804 11.25463581085205 88 49 63
-1.6965198516845703 1.4727967977523804 11.25463581085205 88 49 63
-1.0810050964355469 0.5463537573814392 7.231189727783203 56 27 28
-1.0530600547790527 0.2648436427116394 7.046659469604492 188 183 179
-1.0919442176818848 -0.7735491991043091 7.421417713165283 43 17 22
-1.0229296684265137 0.4006491005420685 6.989037036895752 60 47 55
-1.027160406112671 0.34721097350120544 7.0281982421875 124 106 94
-1.0623409748077393 -0.14929144084453583 7.288486957550049 75 47 28
-1.0655254125595093 -0.3063887357711792 7.344013690948486 62 31 36
-1.0692466497421265 -0.3630732297897339 7.3789143562316895 41 19 21
-1.036710500717163 0.007983275689184666 7.185047149658203 87 70 72
-1.2091494798660278 -3.0609893798828125 8.439750671386719 70 53 71
-1.0293971300125122 -0.13418440520763397 7.229257106781006 65 41 25
-1.0270400047302246 -0.41545334458351135 7.301098346710205 127 109 86
-0.9767378568649292 0.4405704140663147 6.985254287719727 120 107 127
-0.9564199447631836 -1.6992648839950562 6.849179744720459 42 22 28
-1.1629105806350708 -3.0462775230407715 8.365649223327637 76 64 79
-1.0168418884277344 -0.7025352716445923 7.338637828826904 47 20 23
-0.9293681979179382 0.8664164543151855 6.715367794036865 62 38 53
-0.9755805134773254 -1.8743789196014404 7.05054235458374 124 72 82
-0.949743926525116 0.408552348613739 6.9945549964904785 86 66 70
-0.9879651665687561 -0.06421568989753723 7.304420471191406 67 45 23
-0.9873583316802979 -0.23307208716869354 7.3184075355529785 51 29 13
-0.9845699071884155 -0.9176108241081238 7.30038595199585 57 27 33
-0.9845699071884155 -0.9176108241081238 7.30038595199585 57 27 33
-0.979518473148346 -2.187892198562622 7.341770648956299 138 84 102
-0.9519252181053162 -0.465365469455719 7.181300163269043 58 33 33
-0.9217967987060547 -1.2700475454330444 6.950987339019775 41 26 33
-0.9573604464530945 -0.7796669006347656 7.248404026031494 42 15 20
-0.9502890706062317 -0.016323726624250412 7.269618034362793 78 54 46
-0.9552848935127258 -0.3802964985370636 7.313854694366455 32 17 14
-0.9169953465461731 -0.8240588307380676 7.049312591552734 118 67 77
-0.9460141062736511 0.19633692502975464 7.289314270019531 162 144 120
-0.8841071128845215 0.4196973443031311 6.921901226043701 193 187 176
-0.8937946557998657 -1.494571328163147 7.016041278839111 118 74 89
-0.9100040197372437 -0.05891253426671028 7.187048435211182 98 77 69
-0.8728471398353577 0.3948028087615967 6.926289081573486 107 86 84
-0.872909665107727 0.3616035282611847 6.935314178466797 186 178 169
-0.8299938440322876 0.8785120844841003 6.595030784606934 47 27 38
-0.8053442239761353 1.1174448728561401 6.403059482574463 69 49 60
-0.872032880783081 0.3604734539985657 7.0155348777771 169 167 170
-0.8857405185699463 -0.060514625161886215 7.202210903167725 174 164 132
-0.8801200985908508 -2.1635704040527344 7.191254615783691 67 25 30
-0.8438077569007874 -1.194409966468811 6.898828983306885 48 20 24
-0.8684795498847961 -0.702853262424469 7.1576361656188965 87 51 55
-0.8394697308540344 0.39563241600990295 6.940642356872559 169 160 148
-0.8390461206436157 -1.492187261581421 6.955957412719727 103 75 93
-0.8208808898925781 0.7126086354255676 6.8130011558532715 146 95 112
-0.948254406452179 -2.9601261615753174 7.921778678894043 134 144 177
-0.8495144844055176 0.07979568094015121 7.096240997314453 46 32 25
-0.8495144844055176 0.07979568094015121 7.096240997314453 46 32 25
-0.9444568753242493 -3.101423740386963 7.914535999298096 168 151 138
-0.8189647793769836 -1.0898438692092896 6.897760391235352 114 68 82
-0.9350711703300476 -2.9944655895233154 7.888876438140869 181 166 144
-0.8091503381729126 0.700130045413971 6.876060485839844 93 38 49
-0.8091503381729126 0.700130045413971 6.876060485839844 93 38 49
-0.7910171747207642 0.7927366495132446 6.723161220550537 107 55 63
-0.7910171747207642 0.7927366495132446 6.723161220550537 107 55 63
-0.7908357381820679 -0.9857284426689148 6.735082626342773 128 74 87
-0.7908357381820679 -0.9857284426689148 6.735082626342773 128 74 87
-0.7945652008056641 -1.2623625993728638 6.786420822143555 132 79 95
-0.642876148223877 1.4897167682647705 5.508397102355957 76 42 61
-0.9193858504295349 -3.053217887878418 7.884488582611084 120 72 84
-0.833619236946106 -2.2500743865966797 7.160651206970215 75 28 38
-0.7888777852058411 -1.206005334854126 6.784189701080322 109 65 81
-0.92873215675354 -2.7309441566467285 8.02665901184082 61 40 57
-0.90450519323349 -2.831226348876953 7.841444492340088 197 197 169
-0.617667555809021 1.6948661804199219 5.393117904663086 68 57 67
-0.8963623046875 -3.149897813796997 7.827716827392578 62 36 40
-0.8963623046875 -3.149897813796997 7.827716827392578 62 36 40
-0.8100528717041016 -2.1313517093658447 7.087517261505127 79 40 54
-0.7889912724494934 0.519920289516449 6.943583965301514 60 22 25
-0.7812831401824951 -0.5588422417640686 7.0134596824646 111 64 72
-0.7511065602302551 -1.2531179189682007 6.759887218475342 46 20 25
-0.7507554888725281 -1.5309537649154663 6.789566993713379 106 64 77
-0.7693148851394653 0.19063535332679749 6.9816999435424805 125 75 83
-0.7439231872558594 -1.147329568862915 6.764479637145996 121 74 87
-0.8558505773544312 -2.857025146484375 7.798659324645996 47 42 49
-0.8458139300346375 -2.7595667839050293 7.78367805480957 149 131 115
-2.4060516357421875 -3.421116352081299 22.202058792114258 60 31 40
-2.4060516357421875 -3.421116352081299 22.202058792114258 60 31 40
-0.7421777844429016 0.445360392332077 6.919419765472412 58 22 29
-0.7519421577453613 -2.1063380241394043 7.022091865539551 95 42 54
-0.7519421577453613 -2.1063380241394043 7.022091865539551 95 42 54
-0.5957276821136475 1.201402187347412 5.572605609893799 72 34 43
-0.8256447911262512 -2.821991443634033 7.7841973304748535 61 91 97
-0.70440274477005 -1.4163869619369507 6.727711200714111 108 66 79
-0.6988360285758972 -1.211801290512085 6.677549362182617 111 64 82
-0.809272825717926 -2.777101755142212 7.733563423156738 22 26 36
-0.8019119501113892 -2.729226589202881 7.712327480316162 135 126 109
-0.8019119501113892 -2.729226589202881 7.712327480316162 135 126 109
-0.8019119501113892 -2.729226589202881 7.712327480316162 135 126 109
-0.8021590709686279 -3.0389041900634766 7.716071605682373 168 161 138
-0.6928657293319702 -1.3066744804382324 6.666809558868408 126 82 101
-0.8030288219451904 -2.964221954345703 7.731515407562256 52 55 61
-0.7934386134147644 -2.8786985874176025 7.682770729064941 12 33 46
-0.6919915676116943 -1.072903037071228 6.744889259338379 61 25 32
-0.7141884565353394 -2.0712342262268066 6.981024265289307 138 90 105
-0.715595543384552 -2.0507357120513916 7.003047943115234 56 17 31
-0.6800246834754944 -1.2610313892364502 6.678393840789795 127 76 89
-0.6828741431236267 -0.9959625005722046 6.71042537689209 121 72 82
-0.7812618613243103 -2.841449022293091 7.67544412612915 59 98 117
-0.6504528522491455 0.8500967621803284 6.399716377258301 128 85 106
-2.3002846240997314 0.5639612674713135 22.604703903198242 73 33 42
-0.7756698131561279 -2.822033405303955 7.6820831298828125 66 103 116
-0.772497832775116 -2.92966890335083 7.682995319366455 138 161 198
-0.7728117108345032 -3.082303762435913 7.708478927612305 81 73 88
-0.76884925365448 -2.7281434535980225 7.716564655303955 37 23 20
-0.6649850606918335 -1.2047054767608643 6.720153331756592 55 28 34
-0.6318725943565369 0.8278442025184631 6.384636878967285 58 36 46
-0.6791638135910034 -0.2190140038728714 6.897872447967529 50 28 31
-0.6831926107406616 -2.0604617595672607 6.952065467834473 51 21 30
-0.643103837966919 -1.7602653503417969 6.584908485412598 93 48 57
-0.7490854263305664 -3.1923625469207764 7.684184551239014 139 133 117
-2.0681204795837402 -1.3491665124893188 21.10251235961914 100 64 78
-0.6637294292449951 0.555195689201355 6.824405670166016 126 73 82
-0.6533696055412292 -1.1265943050384521 6.791640281677246 50 23 25
-0.6619174480438232 -2.0824573040008545 6.884296417236328 141 91 107
-0.651798665523529 -0.26554757356643677 6.832784652709961 52 20 27
-0.6444463133811951 -0.9506986141204834 6.757698059082031 41 18 20
-0.6444172263145447 -1.144900918006897 6.757692813873291 111 69 77
-0.7219299674034119 -2.772965431213379 7.6442646980285645 142 131 112
-2.137199878692627 -0.1412046104669571 22.519723892211914 69 32 41
-2.293550491333008 0.6216724514961243 24.68377113342285 71 29 37
-0.6370705366134644 -0.2862835228443146 6.799710750579834 102 74 87
-0.6370705366134644 -0.2862835228443146 6.799710750579834 102 74 87
-2.283447504043579 0.9770358204841614 24.800662994384766 58 20 28
-0.6413832902908325 -2.033883810043335 6.896228313446045 134 81 99
-2.098849058151245 -0.21858465671539307 22.612831115722656 54 23 31
-0.5811895132064819 0.8301036357879639 6.30264949798584 69 53 63
-0.6996363997459412 -3.1371283531188965 7.594598770141602 74 27 34
-0.6099187135696411 -0.5216130614280701 6.646772861480713 49 21 22
-0.6186392307281494 -0.6164842844009399 6.7761054039001465 114 60 71
-0.6169761419296265 -0.2736881971359253 6.807285308837891 58 27 30
-0.6105954647064209 -1.2604095935821533 6.766286849975586 113 62 74
-0.6037236452102661 -1.448370337486267 6.799880504608154 45 20 23
-0.6048738360404968 -1.1804836988449097 6.818639755249023 47 20 21
-0.5496338605880737 0.8199343681335449 6.291329860687256 48 35 40
-0.5917447209358215 -1.2387605905532837 6.780004501342773 43 15 23
-0.6526675820350647 -2.923213243484497 7.512147426605225 140 132 122
-0.5345644354820251 1.0066747665405273 6.255156993865967 78 51 62
-0.6414108276367188 -3.0296664237976074 7.537422180175781 166 151 128
-0.5552274584770203 -1.7490590810775757 6.52790641784668 91 51 57
-0.5564457774162292 0.6835523247718811 6.566545486450195 147 96 114
-0.5772942900657654 -2.004181385040283 6.817698955535889 29 19 22
-0.5602962970733643 -0.5271581411361694 6.62144136428833 58 28 30
-0.5281708240509033 0.8330952525138855 6.259125232696533 122 80 98
-0.6355348229408264 -2.7774109840393066 7.589926719665527 30 20 27
-0.6355348229408264 -2.7774109840393066 7.589926719665527 30 20 27
-0.6210445165634155 -2.8994078636169434 7.595639228820801 28 22 25
-0.49885761737823486 0.8388656973838806 6.219836711883545 55 30 38
-0.4465066194534302 1.7666003704071045 5.586777687072754 53 51 56
-0.5194228291511536 -1.8045529127120972 6.543422698974609 34 27 29
-0.5361595153808594 -1.299015998840332 6.770416736602783 34 15 18
-0.5915082097053528 -2.71777606010437 7.617456436157227 61 46 58
-0.44532573223114014 1.3145581483840942 5.747826099395752 79 38 46
-0.5852912664413452 -2.8623881340026855 7.590903282165527 94 79 103
-0.5156316757202148 -2.0046513080596924 6.752313613891602 140 89 99
-0.43628835678100586 1.1551533937454224 5.758162021636963 48 24 24
-0.4930669963359833 -2.023545026779175 6.750706672668457 79 41 49
-0.5481124520301819 -2.8797991275787354 7.5771026611328125 53 33 52
-0.5481124520301819 -2.8797991275787354 7.5771026611328125 53 33 52
-0.41128936409950256 1.0921717882156372 5.7422332763671875 49 27 26
-0.4817476272583008 -1.2675812244415283 6.745314598083496 29 14 14
-0.5385274887084961 -2.8505303859710693 7.56743049621582 117 97 123
-0.5349025130271912 -2.749552011489868 7.5551323890686035 119 95 116
-0.5351614952087402 -2.7179112434387207 7.56072998046875 56 40 59
-0.39115238189697266 1.663187861442566 5.66654109954834 83 49 59
-0.4511508047580719 0.7732150554656982 6.566479682922363 62 45 51
-0.4626883566379547 -0.43204620480537415 6.823582172393799 45 17 17
-0.4626883566379547 -0.43204620480537415 6.823582172393799 45 17 17
-0.5011096000671387 -2.69103741645813 7.524249076843262 128 108 129
-0.4188195765018463 -1.7857589721679688 6.362788677215576 35 25 26
-0.37451159954071045 1.0942902565002441 5.76829719543457 45 26 26
-0.36215823888778687 1.6455804109573364 5.737635612487793 138 92 116
-0.3530758023262024 1.128580093383789 5.801782608032227 89 52 57
-0.40271276235580444 -1.426843285560608 6.620750427246094 111 62 73
-0.3469572961330414 1.668685793876648 5.710471153259277 64 39 44
-0.38716834783554077 -0.572291374206543 6.82221794128418 63 30 39
-0.4201969802379608 -3.042229413986206 7.478393077850342 124 105 131
-0.38068220019340515 -0.19978655874729156 6.795014381408691 62 29 40
-0.41579174995422363 -2.986877679824829 7.423976898193359 58 42 57
-0.41454365849494934 -3.0784947872161865 7.446425914764404 87 64 80
-0.41454365849494934 -3.0784947872161865 7.446425914764404 87 64 80
-0.3766224980354309 0.06488879024982452 6.788657188415527 54 22 30
-0.37545982003211975 -0.5137304663658142 6.820682525634766 51 24 25
-0.36094585061073303 -1.2030681371688843 6.569595813751221 128 74 87
-0.4066736698150635 -2.5649471282958984 7.408910751342773 65 46 64
-0.4066736698150635 -2.5649471282958984 7.408910751342773 65 46 64
-0.30963611602783203 1.7312167882919312 5.658151626586914 46 44 56
-0.3699563145637512 -0.5428867936134338 6.834482192993164 87 64 81
-0.3699563145637512 -0.5428867936134338 6.834482192993164 87 64 81
-0.3107835650444031 1.638088583946228 5.778581142425537 132 95 115
-0.35611817240715027 0.4776451289653778 6.726810455322266 56 18 24
-0.3885962963104248 -2.9737138748168945 7.430819511413574 122 105 124
-0.2947320342063904 1.0358505249023438 5.802444934844971 84 53 57
-0.3731749355792999 -2.888258934020996 7.411569595336914 69 48 62
-0.2855573296546936 1.6728260517120361 5.75428581237793 48 33 42
-0.3624947667121887 -2.8483288288116455 7.372974872589111 120 102 130
-0.31028252840042114 -1.341210126876831 6.4790143966674805 73 26 31
-0.345175176858902 -2.8705148696899414 7.351853847503662 68 47 59
-0.3135850131511688 0.45698127150535583 6.698888301849365 68 26 33
-0.3123118281364441 -0.5697369575500488 6.724730968475342 51 23 32
-0.3123118281364441 -0.5697369575500488 6.724730968475342 51 23 32
-0.2643013596534729 1.644987940788269 5.76469087600708 138 94 117
-0.27084484696388245 0.9618571400642395 5.939787864685059 86 44 54
-0.27084484696388245 0.9618571400642395 5.939787864685059 86 44 54
-0.3325837254524231 -2.5291707515716553 7.302883625030518 92 76 90
-0.2635049819946289 1.0657203197479248 5.788370609283447 112 66 75
-0.3370765745639801 -2.3550755977630615 7.408523082733154 115 89 113
-0.25931259989738464 1.1454485654830933 5.783129692077637 35 19 16
-0.2496810257434845 1.62844717502594 5.795170783996582 84 56 64
-0.23713433742523193 1.6663517951965332 5.710464000701904 55 33 42
-0.2762341797351837 -0.05501833185553551 6.674312114715576 60 24 31
-0.23106057941913605 1.7714238166809082 5.693499565124512 43 37 39
-0.26899752020835876 0.48319971561431885 6.632323265075684 61 25 31
-0.23001445829868317 1.481526494026184 5.830112934112549 44 26 29
-0.22470475733280182 1.3478734493255615 5.819579601287842 45 26 32
-0.21898750960826874 0.7671780586242676 5.901734352111816 59 39 44
-0.23274289071559906 -0.973217785358429 6.409915924072266 108 65 75
-0.23362517356872559 -0.3508504033088684 6.508145332336426 57 26 30
-0.25332948565483093 -2.764127492904663 7.239053726196289 124 99 119
-0.2214289903640747 0.04892083257436752 6.5584797859191895 103 56 67
-0.21119748055934906 -1.1611863374710083 6.4024224281311035 66 40 47
-0.18314312398433685 0.7674903869628906 5.850829124450684 53 34 37
-0.1809646338224411 0.7690606117248535 5.865976333618164 56 34 40
-0.17274169623851776 1.4672789573669434 5.759680271148682 108 61 71
-0.19683991372585297 -0.11935751140117645 6.575010776519775 81 39 42
-0.18570908904075623 -1.2622265815734863 6.268483638763428 153 100 118
-0.18570908904075623 -1.2622265815734863 6.268483638763428 153 100 118
-0.19449810683727264 0.2580573260784149 6.5786824226379395 62 22 20
-0.1640188992023468 1.3212628364562988 5.761178970336914 39 33 35
-0.15019698441028595 1.4684336185455322 5.7360663414001465 48 26 33
-0.14336706697940826 0.7692708969116211 5.795024871826172 126 84 95
-0.1536426842212677 -0.5874367356300354 6.418764114379883 50 32 36
-0.1554386168718338 -0.09592536091804504 6.5396833419799805 57 24 35
-0.1394876390695572 0.07234441488981247 6.470584392547607 70 29 40
-0.1394876390695572 0.07234441488981247 6.470584392547607 70 29 40
-0.13697701692581177 0.10228677839040756 6.4529523849487305 132 79 91
-0.13697701692581177 0.10228677839040756 6.4529523849487305 132 79 91
-0.13349083065986633 0.20765018463134766 6.444291591644287 105 56 63
-0.13015606999397278 0.23929300904273987 6.467278003692627 37 14 18
-0.12249266356229782 0.3618902862071991 6.473999977111816 62 22 27
-0.10446548461914062 0.751424252986908 5.751228332519531 130 84 103
-0.1138245090842247 0.12439598888158798 6.448005199432373 62 23 30
-0.1138245090842247 0.12439598888158798 6.448005199432373 62 23 30
-0.11293067038059235 0.18335485458374023 6.449746131896973 31 11 17
-0.11293067038059235 0.18335485458374023 6.449746131896973 31 11 17
-0.1153348833322525 -2.710087537765503 7.083817481994629 84 66 83
-0.11285683512687683 -2.156257390975952 7.025089263916016 92 66 76
-0.08333490043878555 1.5991309881210327 5.607470989227295 117 71 86
-0.09884069114923477 -1.919747233390808 6.896442890167236 132 106 135
-0.08014952391386032 0.7662742137908936 5.705175876617432 45 24 27
-0.07346010953187943 1.209812045097351 5.651772975921631 57 35 44
-0.06691042333841324 -2.5281803607940674 7.015244960784912 74 59 71
-0.0473196841776371 -1.8674551248550415 6.870561122894287 131 110 138
-0.043806035071611404 -1.7341079711914062 6.83743953704834 30 18 20
-0.0338907390832901 0.7901222109794617 5.678809642791748 127 83 100
-0.02844538725912571 1.4968922138214111 5.591760635375977 82 44 57
-0.02357545495033264 1.20533287525177 5.61710786819458 68 32 43
-0.02357545495033264 1.20533287525177 5.61710786819458 68 32 43
-0.025856483727693558 -0.6156388521194458 6.205824851989746 149 104 124
-0.02820892445743084 -2.84511661529541 6.97756814956665 57 41 57
-0.02341179922223091 -1.8104655742645264 6.8569817543029785 67 36 41
-0.018512491136789322 0.9594862461090088 5.6220598220825195 135 84 98
-0.019818507134914398 -1.9056183099746704 6.8806610107421875 97 75 99
0.008857501670718193 -2.329745054244995 6.913081169128418 83 63 79
0.008916015736758709 -2.520090341567993 6.897884845733643 81 57 71
0.011351441033184528 -1.0458084344863892 6.535733699798584 63 26 25
0.015781084075570107 -2.4510133266448975 6.878658294677734 88 66 89
0.022297853603959084 -1.3668630123138428 6.469274520874023 113 81 100
0.022511260583996773 1.7224546670913696 5.3731689453125 52 43 47
0.04105273261666298 -2.702037811279297 6.869831562042236 87 63 78
0.04105273261666298 -2.702037811279297 6.869831562042236 87 63 78
0.0627332553267479 0.6003570556640625 5.8628830909729 142 93 112
0.07884093374013901 0.4586537182331085 6.226813793182373 54 20 23
0.08921530842781067 0.7431285381317139 5.524990081787109 128 80 101
0.1127314493060112 -1.8169633150100708 6.72322416305542 90 66 81
0.11319174617528915 -1.877455472946167 6.712282180786133 106 74 95
0.09479069709777832 0.7219895720481873 5.540038108825684 61 33 45
0.09503930807113647 0.9093356132507324 5.522834300994873 94 47 54
0.10192891210317612 1.0801736116409302 5.389217376708984 80 43 45
0.12693826854228973 -0.7383525967597961 6.625148296356201 68 45 58
0.13119958341121674 -1.4472589492797852 6.669614315032959 86 58 72
0.13119958341121674 -1.4472589492797852 6.669614315032959 86 58 72
0.11532765626907349 -0.180111363530159 5.725677013397217 60 22 28
0.11528579890727997 1.2916580438613892 5.432380199432373 62 32 44
0.11623860150575638 1.411078929901123 5.409759044647217 58 34 41
0.11815037578344345 1.1181668043136597 5.444886684417725 36 22 20
0.11815037578344345 1.1181668043136597 5.444886684417725 36 22 20
0.12330444157123566 0.7216863632202148 5.4813995361328125 47 35 41
0.12330444157123566 0.7216863632202148 5.4813995361328125 47 35 41
0.1504364013671875 -1.7887247800827026 6.680547714233398 66 54 69
0.1504364013671875 -1.7887247800827026 6.680547714233398 66 54 69
0.12115991860628128 1.5598196983337402 5.373260974884033 119 77 98
0.13104814291000366 -0.28066661953926086 5.766351699829102 133 81 94
0.1628863662481308 -1.6936293840408325 6.634779930114746 141 112 126
0.135853573679924 0.818475604057312 5.47674560546875 128 83 96
0.167453333735466 -2.5466158390045166 6.723180294036865 76 56 68
0.16028103232383728 0.4751892685890198 5.901278018951416 73 28 31
0.16946560144424438 0.27056339383125305 6.124229431152344 50 21 26
0.17071735858917236 0.40279874205589294 5.882052421569824 72 38 48
0.204414963722229 -1.3001641035079956 6.576699256896973 100 64 77
0.21221373975276947 -1.2559717893600464 6.565676212310791 90 56 75
0.17587949335575104 0.9435010552406311 5.283066272735596 151 109 125
0.17490547895431519 1.5496920347213745 5.229515552520752 165 119 144
0.23701976239681244 -1.8457704782485962 6.581286907196045 78 59 74
0.4123808443546295 -1.3596118688583374 11.061141967773438 159 107 126
0.1961829662322998 1.5471192598342896 5.306543350219727 119 66 87
0.21670056879520416 0.07419227808713913 5.839632034301758 45 18 20
0.24437004327774048 -0.9932553768157959 6.527253150939941 64 41 52
0.24663548171520233 -1.268095850944519 6.537527084350586 84 63 78
0.2378736287355423 -0.548815906047821 6.262709617614746 107 71 90
0.2378736287355423 -0.548815906047821 6.262709617614746 107 71 90
0.25220003724098206 -1.2924326658248901 6.523705005645752 135 108 126
0.25220003724098206 -1.2924326658248901 6.523705005645752 135 108 126
0.22614309191703796 0.46143195033073425 5.785689830780029 66 31 33
0.26357367634773254 -1.6911858320236206 6.549930095672607 94 65 75
0.26803040504455566 -1.4571582078933716 6.491745471954346 83 53 68
0.2287522703409195 1.5901113748550415 5.27671480178833 113 63 73
0.2824525237083435 -0.5095680356025696 6.44404411315918 70 46 57
0.2425445318222046 0.8381946086883545 5.483742713928223 51 28 32
0.29433712363243103 -1.6617435216903687 6.493020534515381 135 115 134
0.30023735761642456 -1.2836601734161377 6.480719089508057 90 60 66
0.30023735761642456 -1.2836601734161377 6.480719089508057 90 60 66
0.3055013120174408 -1.305020809173584 6.446249961853027 128 103 119
0.312770277261734 -2.326752185821533 6.539017200469971 84 61 82
0.3116837739944458 -1.6976667642593384 6.490685939788818 75 52 58
0.2757447361946106 0.718606173992157 5.521242141723633 38 28 31
0.3267606496810913 -2.2912168502807617 6.508497714996338 139 123 142
0.32902899384498596 -2.3535804748535156 6.511507511138916 81 60 73
0.3275907039642334 -1.6737169027328491 6.475467681884766 127 110 129
0.2995828092098236 0.910240888595581 5.532883167266846 76 38 47
0.37215685844421387 -1.709309697151184 6.403953552246094 76 52 57
0.37215685844421387 -1.709309697151184 6.403953552246094 76 52 57
0.3765542507171631 -2.2764480113983154 6.454336166381836 127 106 125
0.3446537256240845 0.7464025616645813 5.572843074798584 60 33 45
0.3989233672618866 -2.31575608253479 6.431739807128906 52 34 48
0.40662091970443726 -1.2590376138687134 6.34082555770874 76 54 62
0.40662091970443726 -1.2590376138687134 6.34082555770874 76 54 62
0.4100097715854645 -2.0903513431549072 6.382483959197998 96 68 78
0.4159940779209137 -2.062255620956421 6.379916667938232 132 116 136
0.43612179160118103 -1.437713861465454 6.29426908493042 72 52 64
0.46344155073165894 -2.3163554668426514 6.348313331604004 94 64 82
0.4663560092449188 -1.4343140125274658 6.28208065032959 122 101 121
0.46344128251075745 -0.5187179446220398 6.19280481338501 130 106 121
0.47365787625312805 -1.5386707782745361 6.271507263183594 88 66 77
0.48265692591667175 -1.834078073501587 6.3101019859313965 68 51 69
0.48730728030204773 -1.6794310808181763 6.251138210296631 86 63 72
0.48730728030204773 -1.6794310808181763 6.251138210296631 86 63 72
0.4847269654273987 -0.952796220779419 6.2154154777526855 133 111 129
0.48773109912872314 -0.9861379861831665 6.207162380218506 80 63 73
0.4807547628879547 -0.011521614156663418 5.916760444641113 64 33 35
0.5344326496124268 -2.298004150390625 6.269677639007568 127 109 133
0.5403136610984802 -0.9761611819267273 6.148507118225098 114 102 127
0.5433108806610107 -0.9997711181640625 6.169520854949951 71 56 74
0.5475201606750488 -1.6845170259475708 6.175674915313721 78 55 67
0.558495283126831 -0.5528495907783508 6.111694812774658 80 54 63
0.59732586145401 -2.298430919647217 6.18063497543335 127 109 129
0.5968772172927856 -2.145792245864868 6.166703701019287 133 114 131
0.6011749505996704 -2.280398368835449 6.1924662590026855 70 48 64
0.5944845676422119 -0.7639344334602356 6.072658538818359 65 43 49
0.5954104065895081 -0.5384136438369751 6.0682573318481445 126 112 136
0.6011506915092468 -1.0365980863571167 6.107578754425049 88 71 82
0.6176820993423462 -2.5399508476257324 6.194092273712158 84 58 70
0.5826622247695923 1.1368978023529053 5.8236799240112305 81 44 47
0.6175785660743713 0.615192711353302 5.9495086669921875 121 112 137
0.6201422810554504 0.4115494191646576 5.959414482116699 107 97 117
0.6171002984046936 0.7601755857467651 5.901022911071777 65 36 47
0.6171002984046936 0.7601755857467651 5.901022911071777 65 36 47
0.6276748776435852 -0.31614360213279724 5.980832099914551 72 47 61
0.633028507232666 -0.2977624237537384 5.990100383758545 120 110 134
0.6095298528671265 1.6686965227127075 5.673186302185059 57 51 64
0.648311197757721 -0.042660485953092575 5.955458641052246 57 45 58
0.6340085864067078 1.5951653718948364 5.76630973815918 127 114 131
0.6740609407424927 -2.323012113571167 6.112062454223633 74 47 60
0.6436086297035217 1.563071608543396 5.803518772125244 62 51 69
0.6548664569854736 1.0923138856887817 5.811351776123047 63 33 39
0.6548664569854736 1.0923138856887817 5.811351776123047 63 33 39
0.6844810247421265 -2.3307454586029053 6.066437244415283 138 112 127
0.696283221244812 -1.8279167413711548 6.053773403167725 82 59 70
0.675911009311676 0.5602596998214722 5.869338035583496 67 43 57
0.6862853765487671 -0.3154889643192291 5.954262733459473 47 36 44
0.6862853765487671 -0.3154889643192291 5.954262733459473 47 36 44
0.6927569508552551 -0.2877953052520752 5.9387688636779785 136 114 130
0.6991503834724426 -1.0316767692565918 5.970747470855713 63 49 59
0.7003268003463745 -0.5543096661567688 5.929269790649414 76 50 63
0.7117688655853271 -1.7090274095535278 5.993720531463623 72 51 62
0.7117688655853271 -1.7090274095535278 5.993720531463623 72 51 62
0.7065006494522095 -0.5338072180747986 5.916942596435547 118 101 124
0.7035898566246033 -0.00608713086694479 5.885376930236816 128 110 131
0.7036474347114563 -0.04581637308001518 5.885222911834717 75 57 68
0.7074508666992188 1.4809225797653198 5.791521072387695 108 97 122
0.7407765984535217 -2.338418483734131 6.024709224700928 67 49 62
0.7229501605033875 -0.08518686145544052 5.856359481811523 119 96 118
0.7425477504730225 -2.037877082824707 5.988957405090332 76 59 76
0.728554904460907 -0.2904704511165619 5.874372482299805 137 121 139
0.7459667921066284 -1.2900420427322388 5.986107349395752 49 32 39
0.7182273864746094 1.4296082258224487 5.756323337554932 49 34 42
0.7389509081840515 -0.553048312664032 5.900617599487305 53 36 41
0.7479455471038818 -1.3300772905349731 5.95902156829834 52 41 45
0.7272412180900574 0.7859729528427124 5.7802863121032715 126 98 109
0.7556809186935425 -1.303354263305664 5.955874443054199 74 65 74
0.7556809186935425 -1.303354263305664 5.955874443054199 74 65 74
0.7421590685844421 -0.04488737881183624 5.827737808227539 84 62 70
0.7554860711097717 -0.5372624397277832 5.875710964202881 103 90 109
0.7497317790985107 0.39119836688041687 5.817144393920898 114 104 124
0.765584409236908 -1.6924152374267578 5.931267261505127 119 102 124
0.7682850956916809 -1.3497745990753174 5.91955041885376 127 103 121
0.7528339624404907 -0.0063356319442391396 5.7981061935424805 124 106 128
0.771882176399231 -1.711693286895752 5.9190874099731445 70 55 64
0.7567996382713318 0.6020675301551819 5.7466206550598145 140 117 131
0.7567996382713318 0.6020675301551819 5.7466206550598145 140 117 131
0.7897655963897705 -1.5707430839538574 5.916732311248779 81 62 72
0.8021746873855591 -2.063286304473877 5.922976016998291 68 46 55
0.7939724922180176 -0.8212172985076904 5.857826232910156 52 45 55
0.7707399725914001 1.4133425951004028 5.686125755310059 39 27 36
0.7707399725914001 1.4133425951004028 5.686125755310059 39 27 36
0.80684494972229 -2.3271195888519287 5.94552755355835 80 62 75
0.7857862710952759 -0.046107154339551926 5.779010772705078 58 37 45
0.7857862710952759 -0.046107154339551926 5.779010772705078 58 37 45
0.8025593757629395 -1.6875190734863281 5.897060394287109 118 104 129
0.8086899518966675 -2.0854363441467285 5.919089317321777 133 107 122
0.8015372157096863 -1.3150397539138794 5.862383842468262 77 54 67
0.784491777420044 0.8312106132507324 5.724072456359863 68 50 59
0.7849613428115845 0.8835821747779846 5.714239120483398 68 50 66
0.8121261596679688 -1.71648371219635 5.897150039672852 60 43 55
0.7874608635902405 0.9147055149078369 5.70507287979126 67 49 68
0.7981153130531311 0.14830072224140167 5.766118049621582 72 53 70
0.7981153130531311 0.14830072224140167 5.766118049621582 72 53 70
0.7917101383209229 0.9979572296142578 5.702883720397949 121 117 138
0.7977012991905212 1.2244375944137573 5.689297199249268 103 100 126
0.8153114914894104 -0.33078283071517944 5.779566764831543 64 42 53
0.8222911357879639 -1.4799675941467285 5.807409286499023 80 61 70
0.8229770064353943 -0.19275179505348206 5.744091987609863 67 46 51
0.8258981704711914 0.357990026473999 5.736865043640137 76 57 71
0.8456094861030579 -1.7229923009872437 5.8425374031066895 64 48 59
0.8194467425346375 0.886103093624115 5.655714511871338 134 113 129
0.833351731300354 -0.036301903426647186 5.72652530670166 119 101 122
0.8546561598777771 -1.286694884300232 5.800721645355225 82 60 75
0.8638409376144409 -2.120171308517456 5.85792875289917 72 54 72
0.840763509273529 0.35853445529937744 5.699460506439209 65 46 64
0.8694315552711487 -2.3116767406463623 5.8583502769470215 66 52 72
0.8491199016571045 -0.29058367013931274 5.720882415771484 135 115 133
0.8640854358673096 -1.5411545038223267 5.800077438354492 121 107 129
0.8645961284637451 -1.5201584100723267 5.800914287567139 76 57 69
0.8404369950294495 1.505636215209961 5.619792938232422 100 94 129
0.8645574450492859 -0.5760754942893982 5.756011962890625 66 47 52
0.8788720369338989 -2.4180922508239746 5.849557876586914 149 131 155
0.845129668712616 1.4572724103927612 5.611724376678467 95 88 104
0.845129668712616 1.4572724103927612 5.611724376678467 95 88 104
0.8637044429779053 0.34030377864837646 5.6584153175354 78 61 76
0.8938778042793274 -2.0819203853607178 5.833573341369629 51 36 55
0.8938778042793274 -2.0819203853607178 5.833573341369629 51 36 55
0.8792983293533325 -0.32941707968711853 5.738263130187988 51 39 48
0.8790863752365112 -0.5439742803573608 5.718936920166016 119 101 129
0.8641979694366455 1.1958059072494507 5.616990566253662 75 53 68
0.8781067132949829 -0.10470493137836456 5.691776275634766 60 43 62
0.8939560055732727 -1.3274338245391846 5.788589000701904 77 56 64
0.861255407333374 1.320097804069519 5.5694193840026855 73 56 74
0.8727052807807922 0.7907257676124573 5.617521286010742 56 43 61
0.8988469839096069 -1.583346962928772 5.7778496742248535 120 98 118
0.9010125398635864 -1.557442545890808 5.77322244644165 63 48 58
0.9010125398635864 -1.557442545890808 5.77322244644165 63 48 58
0.8852611184120178 0.44975489377975464 5.627594470977783 88 64 70
0.9086733460426331 -1.516923427581787 5.758095741271973 121 99 118
0.8871188163757324 0.7641160488128662 5.617057800292969 124 120 143
0.8871188163757324 0.7641160488128662 5.617057800292969 124 120 143
0.8800432085990906 0.9778499603271484 5.554163932800293 74 48 60
0.8830188512802124 1.4847444295883179 5.5573225021362305 62 47 59
0.9018999934196472 -0.18469509482383728 5.666960716247559 120 98 115
0.9068658351898193 -0.34754905104637146 5.691812038421631 45 32 38
0.8902773857116699 1.4509005546569824 5.564153671264648 115 108 133
0.9289303421974182 -2.3220362663269043 5.802037715911865 76 53 65
0.9325042366981506 -2.3833601474761963 5.784784317016602 93 73 96
0.9033455848693848 0.782008171081543 5.601154804229736 106 98 123
0.898978054523468 1.1942328214645386 5.572067737579346 134 133 156
0.933177649974823 -2.088405132293701 5.780272006988525 72 54 65
0.933177649974823 -2.088405132293701 5.780272006988525 72 54 65
0.9132482409477234 0.16545119881629944 5.623723983764648 70 55 69
0.9100768566131592 0.5999687910079956 5.592039108276367 123 101 115
0.9270508885383606 -0.8106221556663513 5.68208646774292 79 58 65
0.9270508885383606 -0.8106221556663513 5.68208646774292 79 58 65
0.9282169938087463 -0.6272331476211548 5.664619445800781 123 97 116
0.9230239987373352 0.5590721964836121 5.621282577514648 48 36 44
0.9438841342926025 -1.7827363014221191 5.730080604553223 81 66 84
0.9438841342926025 -1.7827363014221191 5.730080604553223 81 66 84
0.9461604952812195 -1.564075231552124 5.722541809082031 39 27 39
0.9572535753250122 -2.3198437690734863 5.774582862854004 59 44 58
0.9572535753250122 -2.3198437690734863 5.774582862854004 59 44 58
0.9428650140762329 -1.0544136762619019 5.6852216720581055 84 59 67
0.9474069476127625 -1.035267949104309 5.685934066772461 109 103 124
0.9450138211250305 -0.6072338223457336 5.663398742675781 52 37 48
0.9540757536888123 -1.623884916305542 5.701141357421875 126 111 137
0.9552330374717712 -1.322871446609497 5.682253360748291 74 56 64
0.958841860294342 -1.5405586957931519 5.6962761878967285 117 96 116
0.9346497058868408 1.0818538665771484 5.541131019592285 104 107 131
0.9342390298843384 1.1387649774551392 5.537099838256836 110 105 126
0.9273467659950256 1.494225025177002 5.49218225479126 80 57 71
