-5.359196066856384277e-01 -7.572908401489257812e-01 5.476673603057861328e+00 2.500000000000000000e+01 2.200000000000000000e+01 4.900000000000000000e+01
-5.433630943298339844e-01 -4.397806823253631592e-01 5.597448348999023438e+00 6.000000000000000000e+01 5.400000000000000000e+01 8.900000000000000000e+01
-5.301079154014587402e-01 2.485447078943252563e-01 5.479501724243164062e+00 1.480000000000000000e+02 1.600000000000000000e+02 1.690000000000000000e+02
-5.315852165222167969e-01 -9.437353610992431641e-01 5.508471965789794922e+00 8.900000000000000000e+01 7.100000000000000000e+01 1.000000000000000000e+02
-5.215982198715209961e-01 4.513778686523437500e-01 5.412469387054443359e+00 1.100000000000000000e+02 9.300000000000000000e+01 1.450000000000000000e+02
-5.725508928298950195e-01 -1.784762620925903320e+00 5.978315830230712891e+00 1.770000000000000000e+02 1.230000000000000000e+02 1.020000000000000000e+02
-5.323475003242492676e-01 4.882445931434631348e-02 5.561277389526367188e+00 2.500000000000000000e+01 3.200000000000000000e+01 4.600000000000000000e+01
-5.323475003242492676e-01 4.882445931434631348e-02 5.561277389526367188e+00 2.500000000000000000e+01 3.200000000000000000e+01 4.600000000000000000e+01
-5.706372857093811035e-01 -1.871468901634216309e+00 5.978102207183837891e+00 1.350000000000000000e+02 1.550000000000000000e+02 1.630000000000000000e+02
-5.200535655021667480e-01 -6.909544467926025391e-01 5.474718570709228516e+00 9.000000000000000000e+01 7.600000000000000000e+01 1.160000000000000000e+02
-5.655983090400695801e-01 -1.808967471122741699e+00 5.965195655822753906e+00 1.490000000000000000e+02 1.680000000000000000e+02 1.750000000000000000e+02
-5.123956203460693359e-01 4.418049752712249756e-01 5.444233417510986328e+00 4.800000000000000000e+01 3.800000000000000000e+01 9.100000000000000000e+01
-5.123956203460693359e-01 4.418049752712249756e-01 5.444233417510986328e+00 4.800000000000000000e+01 3.800000000000000000e+01 9.100000000000000000e+01
-5.049912929534912109e-01 5.047620534896850586e-01 5.366357803344726562e+00 6.400000000000000000e+01 5.600000000000000000e+01 1.050000000000000000e+02
-5.049912929534912109e-01 5.047620534896850586e-01 5.366357803344726562e+00 6.400000000000000000e+01 5.600000000000000000e+01 1.050000000000000000e+02
-5.065578818321228027e-01 -6.299865245819091797e-01 5.390840053558349609e+00 8.400000000000000000e+01 7.100000000000000000e+01 1.260000000000000000e+02
-5.065578818321228027e-01 -6.299865245819091797e-01 5.390840053558349609e+00 8.400000000000000000e+01 7.100000000000000000e+01 1.260000000000000000e+02
-5.078216791152954102e-01 -8.051201701164245605e-01 5.420612812042236328e+00 8.900000000000000000e+01 7.500000000000000000e+01 1.230000000000000000e+02
-4.388039410114288330e-01 1.017653346061706543e+00 4.699059486389160156e+00 6.400000000000000000e+01 4.600000000000000000e+01 8.800000000000000000e+01
-5.231859087944030762e-01 -1.409686326980590820e+00 5.617293834686279297e+00 4.000000000000000000e+01 3.200000000000000000e+01 7.700000000000000000e+01
-5.041856169700622559e-01 -7.692249417304992676e-01 5.418978691101074219e+00 8.600000000000000000e+01 7.100000000000000000e+01 1.150000000000000000e+02
-5.574937462806701660e-01 -1.637696623802185059e+00 6.023010253906250000e+00 5.700000000000000000e+01 4.000000000000000000e+01 6.100000000000000000e+01
-5.482838153839111328e-01 -1.714125990867614746e+00 5.941908359527587891e+00 1.540000000000000000e+02 1.810000000000000000e+02 1.870000000000000000e+02
-4.242269396781921387e-01 1.165015339851379395e+00 4.629353523254394531e+00 6.700000000000000000e+01 5.700000000000000000e+01 6.800000000000000000e+01
-5.440845489501953125e-01 -1.909348011016845703e+00 5.939622879028320312e+00 3.500000000000000000e+01 3.000000000000000000e+01 7.200000000000000000e+01
-5.440845489501953125e-01 -1.909348011016845703e+00 5.939622879028320312e+00 3.500000000000000000e+01 3.000000000000000000e+01 7.200000000000000000e+01
-5.102714300155639648e-01 -1.340266704559326172e+00 5.580644130706787109e+00 5.300000000000000000e+01 3.800000000000000000e+01 8.200000000000000000e+01
-4.980013668537139893e-01 3.266530334949493408e-01 5.479526996612548828e+00 3.000000000000000000e+01 2.700000000000000000e+01 6.200000000000000000e+01
-4.924463927745819092e-01 -3.524391353130340576e-01 5.527032375335693359e+00 8.000000000000000000e+01 6.900000000000000000e+01 1.160000000000000000e+02
-4.807333648204803467e-01 -8.003860712051391602e-01 5.407033920288085938e+00 2.500000000000000000e+01 2.000000000000000000e+01 4.600000000000000000e+01
-4.800134599208831787e-01 -9.768972396850585938e-01 5.425709247589111328e+00 8.000000000000000000e+01 6.500000000000000000e+01 1.090000000000000000e+02
-4.849386513233184814e-01 1.189708709716796875e-01 5.501379966735839844e+00 8.700000000000000000e+01 7.300000000000000000e+01 1.250000000000000000e+02
-4.759020507335662842e-01 -7.325781583786010742e-01 5.408469200134277344e+00 8.500000000000000000e+01 7.200000000000000000e+01 1.100000000000000000e+02
-5.199789404869079590e-01 -1.733810186386108398e+00 5.923305034637451172e+00 4.900000000000000000e+01 4.200000000000000000e+01 4.700000000000000000e+01
-5.141825675964355469e-01 -1.675693392753601074e+00 5.915229797363281250e+00 1.230000000000000000e+02 1.420000000000000000e+02 1.470000000000000000e+02
-4.691391587257385254e-01 2.800575494766235352e-01 5.467394828796386719e+00 3.500000000000000000e+01 2.300000000000000000e+01 5.200000000000000000e+01
-4.753176867961883545e-01 -1.329101443290710449e+00 5.548087596893310547e+00 5.800000000000000000e+01 4.500000000000000000e+01 1.010000000000000000e+02
-4.753176867961883545e-01 -1.329101443290710449e+00 5.548087596893310547e+00 5.800000000000000000e+01 4.500000000000000000e+01 1.010000000000000000e+02
-4.660620093345642090e-01 -9.547002315521240234e-01 5.445766448974609375e+00 9.800000000000000000e+01 7.900000000000000000e+01 1.180000000000000000e+02
-4.053627550601959229e-01 8.183555006980895996e-01 4.738687515258789062e+00 5.900000000000000000e+01 4.400000000000000000e+01 6.800000000000000000e+01
-5.019799470901489258e-01 -1.713544130325317383e+00 5.915493488311767578e+00 9.000000000000000000e+01 8.100000000000000000e+01 4.600000000000000000e+01
-4.517901837825775146e-01 -9.065921902656555176e-01 5.392890930175781250e+00 7.900000000000000000e+01 6.600000000000000000e+01 1.080000000000000000e+02
-4.492523372173309326e-01 -7.774121761322021484e-01 5.365119934082031250e+00 8.200000000000000000e+01 6.400000000000000000e+01 1.110000000000000000e+02
-4.932748079299926758e-01 -1.690818548202514648e+00 5.892817497253417969e+00 4.800000000000000000e+01 3.700000000000000000e+01 3.500000000000000000e+01
-4.892823100090026855e-01 -1.663393259048461914e+00 5.882639408111572266e+00 1.130000000000000000e+02 1.300000000000000000e+02 1.410000000000000000e+02
-4.892823100090026855e-01 -1.663393259048461914e+00 5.882639408111572266e+00 1.130000000000000000e+02 1.300000000000000000e+02 1.410000000000000000e+02
-4.892823100090026855e-01 -1.663393259048461914e+00 5.882639408111572266e+00 1.130000000000000000e+02 1.300000000000000000e+02 1.410000000000000000e+02
-4.896448552608489990e-01 -1.852631092071533203e+00 5.888025283813476562e+00 1.310000000000000000e+02 1.550000000000000000e+02 1.700000000000000000e+02
-4.457710087299346924e-01 -8.388869762420654297e-01 5.360625743865966797e+00 9.600000000000000000e+01 7.700000000000000000e+01 1.220000000000000000e+02
-4.897039532661437988e-01 -1.805548071861267090e+00 5.894425392150878906e+00 9.400000000000000000e+01 7.400000000000000000e+01 6.000000000000000000e+01
-4.850066900253295898e-01 -1.757591724395751953e+00 5.871045112609863281e+00 4.500000000000000000e+01 2.900000000000000000e+01 1.700000000000000000e+01
-4.430787265300750732e-01 -6.857413649559020996e-01 5.397504329681396484e+00 2.800000000000000000e+01 2.100000000000000000e+01 5.800000000000000000e+01
-4.524189233779907227e-01 -1.309809565544128418e+00 5.527579307556152344e+00 1.050000000000000000e+02 9.000000000000000000e+01 1.380000000000000000e+02
-4.527524709701538086e-01 -1.295274734497070312e+00 5.538081169128417969e+00 3.100000000000000000e+01 1.700000000000000000e+01 5.600000000000000000e+01
-4.371863901615142822e-01 -8.090396523475646973e-01 5.365918159484863281e+00 8.200000000000000000e+01 6.800000000000000000e+01 1.140000000000000000e+02
-4.380015432834625244e-01 -6.375662684440612793e-01 5.378593921661376953e+00 7.500000000000000000e+01 6.600000000000000000e+01 1.120000000000000000e+02
-4.777083396911621094e-01 -1.735488772392272949e+00 5.867428779602050781e+00 1.130000000000000000e+02 9.200000000000000000e+01 5.300000000000000000e+01
-4.226208627223968506e-01 5.515868663787841797e-01 5.198328018188476562e+00 1.090000000000000000e+02 8.900000000000000000e+01 1.290000000000000000e+02
-4.741102159023284912e-01 -1.722909808158874512e+00 5.869907855987548828e+00 1.160000000000000000e+02 1.030000000000000000e+02 6.600000000000000000e+01
-4.722505509853363037e-01 -1.788878679275512695e+00 5.871737957000732422e+00 1.810000000000000000e+02 1.350000000000000000e+02 1.150000000000000000e+02
-4.719528853893280029e-01 -1.880219817161560059e+00 5.885672569274902344e+00 6.800000000000000000e+01 6.900000000000000000e+01 8.700000000000000000e+01
-4.690069258213043213e-01 -1.662436008453369141e+00 5.884495735168457031e+00 2.000000000000000000e+01 2.300000000000000000e+01 3.700000000000000000e+01
-4.264836311340332031e-01 -7.711774110794067383e-01 5.386466503143310547e+00 2.300000000000000000e+01 1.800000000000000000e+01 4.700000000000000000e+01
-4.109029173851013184e-01 5.376585721969604492e-01 5.190713882446289062e+00 5.600000000000000000e+01 4.600000000000000000e+01 5.900000000000000000e+01
-4.304322302341461182e-01 -1.393254250288009644e-01 5.464586257934570312e+00 3.200000000000000000e+01 2.900000000000000000e+01 4.700000000000000000e+01
-4.334473013877868652e-01 -1.305061101913452148e+00 5.513267040252685547e+00 3.000000000000000000e+01 2.100000000000000000e+01 5.100000000000000000e+01
-4.160279929637908936e-01 -1.136177182197570801e+00 5.324034214019775391e+00 5.600000000000000000e+01 4.900000000000000000e+01 9.400000000000000000e+01
-4.215733706951141357e-01 3.512589633464813232e-01 5.419847011566162109e+00 8.200000000000000000e+01 7.400000000000000000e+01 1.220000000000000000e+02
-4.173336327075958252e-01 -7.183974385261535645e-01 5.421242713928222656e+00 2.300000000000000000e+01 1.900000000000000000e+01 5.200000000000000000e+01
-4.215123355388641357e-01 -1.323835134506225586e+00 5.479949474334716797e+00 1.070000000000000000e+02 9.100000000000000000e+01 1.410000000000000000e+02
-4.146022796630859375e-01 -1.692250519990921021e-01 5.431948184967041016e+00 2.700000000000000000e+01 2.300000000000000000e+01 5.400000000000000000e+01
-4.122335016727447510e-01 -6.071869134902954102e-01 5.402236461639404297e+00 2.100000000000000000e+01 1.500000000000000000e+01 3.400000000000000000e+01
-4.123867154121398926e-01 -7.314371466636657715e-01 5.404711723327636719e+00 7.700000000000000000e+01 6.700000000000000000e+01 1.060000000000000000e+02
-4.420912861824035645e-01 -1.696278810501098633e+00 5.852095603942871094e+00 1.120000000000000000e+02 1.310000000000000000e+02 1.420000000000000000e+02
-4.059637188911437988e-01 -1.826910972595214844e-01 5.416339397430419922e+00 8.700000000000000000e+01 7.400000000000000000e+01 1.020000000000000000e+02
-4.059637188911437988e-01 -1.826910972595214844e-01 5.416339397430419922e+00 8.700000000000000000e+01 7.400000000000000000e+01 1.020000000000000000e+02
-4.081456363201141357e-01 -1.291869759559631348e+00 5.484457969665527344e+00 9.900000000000000000e+01 8.200000000000000000e+01 1.330000000000000000e+02
-3.796431720256805420e-01 5.417484641075134277e-01 5.147352218627929688e+00 6.300000000000000000e+01 5.300000000000000000e+01 6.900000000000000000e+01
-4.298652410507202148e-01 -1.925249457359313965e+00 5.834007740020751953e+00 4.300000000000000000e+01 3.800000000000000000e+01 9.400000000000000000e+01
-3.921409845352172852e-01 -3.349225223064422607e-01 5.341015338897705078e+00 2.200000000000000000e+01 2.100000000000000000e+01 4.700000000000000000e+01
-3.950141966342926025e-01 -3.933863937854766846e-01 5.408212184906005859e+00 7.100000000000000000e+01 6.100000000000000000e+01 1.150000000000000000e+02
-3.929786384105682373e-01 -1.746542453765869141e-01 5.419973850250244141e+00 2.700000000000000000e+01 2.100000000000000000e+01 5.400000000000000000e+01
-3.906487524509429932e-01 -8.050957918167114258e-01 5.410477161407470703e+00 7.600000000000000000e+01 6.200000000000000000e+01 1.150000000000000000e+02
-3.857023119926452637e-01 -9.238178730010986328e-01 5.429553985595703125e+00 2.100000000000000000e+01 2.000000000000000000e+01 4.600000000000000000e+01
-3.858197331428527832e-01 -7.519046068191528320e-01 5.435689926147460938e+00 2.600000000000000000e+01 2.300000000000000000e+01 5.300000000000000000e+01
-3.592500984668731689e-01 5.354410409927368164e-01 5.141212940216064453e+00 4.000000000000000000e+01 3.500000000000000000e+01 4.800000000000000000e+01
-3.782836198806762695e-01 -7.907075285911560059e-01 5.417069911956787109e+00 2.300000000000000000e+01 1.500000000000000000e+01 4.300000000000000000e+01
-4.025671184062957764e-01 -1.801131248474121094e+00 5.793222427368164062e+00 1.080000000000000000e+02 1.090000000000000000e+02 1.190000000000000000e+02
-3.499548137187957764e-01 6.583778262138366699e-01 5.119424343109130859e+00 7.100000000000000000e+01 5.400000000000000000e+01 8.400000000000000000e+01
-3.951821625232696533e-01 -1.864628911018371582e+00 5.806236267089843750e+00 1.330000000000000000e+02 1.480000000000000000e+02 1.590000000000000000e+02
-3.602919876575469971e-01 -1.132483839988708496e+00 5.294062614440917969e+00 6.400000000000000000e+01 5.400000000000000000e+01 9.200000000000000000e+01
-3.583068251609802246e-01 4.391314983367919922e-01 5.286705970764160156e+00 1.140000000000000000e+02 9.600000000000000000e+01 1.470000000000000000e+02
-3.688853383064270020e-01 -1.278513550758361816e+00 5.445391178131103516e+00 2.200000000000000000e+01 1.900000000000000000e+01 2.900000000000000000e+01
-3.607299923896789551e-01 -3.389719426631927490e-01 5.328005313873291016e+00 3.800000000000000000e+01 3.200000000000000000e+01 6.400000000000000000e+01
-3.458250164985656738e-01 5.450297594070434570e-01 5.123677730560302734e+00 9.800000000000000000e+01 8.000000000000000000e+01 1.260000000000000000e+02
-3.903028964996337891e-01 -1.703857660293579102e+00 5.826728820800781250e+00 2.800000000000000000e+01 2.100000000000000000e+01 3.200000000000000000e+01
-3.903028964996337891e-01 -1.703857660293579102e+00 5.826728820800781250e+00 2.800000000000000000e+01 2.100000000000000000e+01 3.200000000000000000e+01
-3.813720643520355225e-01 -1.778670549392700195e+00 5.831228256225585938e+00 2.900000000000000000e+01 2.200000000000000000e+01 2.900000000000000000e+01
-3.273274004459381104e-01 5.500681996345520020e-01 5.102533340454101562e+00 4.900000000000000000e+01 4.300000000000000000e+01 5.500000000000000000e+01
-3.030483722686767578e-01 1.199501633644104004e+00 4.740213394165039062e+00 5.700000000000000000e+01 4.900000000000000000e+01 5.000000000000000000e+01
-3.367742300033569336e-01 -1.167796254158020020e+00 5.303310871124267578e+00 2.700000000000000000e+01 2.300000000000000000e+01 3.300000000000000000e+01
-3.429478704929351807e-01 -8.298133611679077148e-01 5.413209915161132812e+00 1.700000000000000000e+01 1.600000000000000000e+01 3.500000000000000000e+01
-3.626860976219177246e-01 -1.664937615394592285e+00 5.838893413543701172e+00 5.900000000000000000e+01 4.500000000000000000e+01 6.900000000000000000e+01
-2.997918128967285156e-01 8.852481245994567871e-01 4.836684226989746094e+00 5.000000000000000000e+01 3.700000000000000000e+01 5.900000000000000000e+01
-3.594765067100524902e-01 -1.756346106529235840e+00 5.828480243682861328e+00 1.020000000000000000e+02 7.800000000000000000e+01 9.000000000000000000e+01
-3.306563794612884521e-01 -1.283312439918518066e+00 5.412057876586914062e+00 1.040000000000000000e+02 8.600000000000000000e+01 1.390000000000000000e+02
-2.936500906944274902e-01 7.778499722480773926e-01 4.844047069549560547e+00 2.900000000000000000e+01 2.700000000000000000e+01 5.400000000000000000e+01
-3.162076771259307861e-01 -1.295681595802307129e+00 5.411718368530273438e+00 4.800000000000000000e+01 3.600000000000000000e+01 8.300000000000000000e+01
-3.368903100490570068e-01 -1.768429517745971680e+00 5.822309017181396484e+00 5.200000000000000000e+01 3.300000000000000000e+01 5.300000000000000000e+01
-3.368903100490570068e-01 -1.768429517745971680e+00 5.822309017181396484e+00 5.200000000000000000e+01 3.300000000000000000e+01 5.300000000000000000e+01
-2.771078944206237793e-01 7.362983226776123047e-01 4.835526466369628906e+00 2.500000000000000000e+01 2.600000000000000000e+01 4.800000000000000000e+01
-3.085084557533264160e-01 -8.109098076820373535e-01 5.400447368621826172e+00 1.500000000000000000e+01 1.400000000000000000e+01 2.800000000000000000e+01
-3.311263620853424072e-01 -1.751422524452209473e+00 5.817955970764160156e+00 1.260000000000000000e+02 9.800000000000000000e+01 1.160000000000000000e+02
-3.290672898292541504e-01 -1.689992189407348633e+00 5.810343742370605469e+00 1.160000000000000000e+02 9.500000000000000000e+01 1.190000000000000000e+02
-3.291065096855163574e-01 -1.669998884201049805e+00 5.812607288360595703e+00 6.600000000000000000e+01 4.500000000000000000e+01 7.000000000000000000e+01
-2.642738223075866699e-01 1.124152541160583496e+00 4.786709785461425781e+00 5.900000000000000000e+01 4.900000000000000000e+01 6.400000000000000000e+01
-2.903867363929748535e-01 4.965171813964843750e-01 5.285135269165039062e+00 5.000000000000000000e+01 4.600000000000000000e+01 6.000000000000000000e+01
-2.945178747177124023e-01 -2.753852009773254395e-01 5.429103851318359375e+00 1.500000000000000000e+01 1.500000000000000000e+01 4.400000000000000000e+01
-2.945178747177124023e-01 -2.753852009773254395e-01 5.429103851318359375e+00 1.500000000000000000e+01 1.500000000000000000e+01 4.400000000000000000e+01
-3.087349236011505127e-01 -1.656587243080139160e+00 5.795249462127685547e+00 1.350000000000000000e+02 1.110000000000000000e+02 1.270000000000000000e+02
-2.742713093757629395e-01 -1.166856408119201660e+00 5.207528114318847656e+00 2.600000000000000000e+01 2.500000000000000000e+01 3.500000000000000000e+01
-2.519275844097137451e-01 7.364740967750549316e-01 4.849943161010742188e+00 2.300000000000000000e+01 2.400000000000000000e+01 4.700000000000000000e+01
-2.436528354883193970e-01 1.107573032379150391e+00 4.827331542968750000e+00 1.120000000000000000e+02 9.200000000000000000e+01 1.370000000000000000e+02
-2.370161861181259155e-01 7.578608989715576172e-01 4.868279933929443359e+00 5.600000000000000000e+01 5.000000000000000000e+01 9.300000000000000000e+01
-2.597783505916595459e-01 -9.189143180847167969e-01 5.337399005889892578e+00 7.500000000000000000e+01 6.400000000000000000e+01 1.140000000000000000e+02
-2.337858676910400391e-01 1.124747633934020996e+00 4.811172008514404297e+00 4.900000000000000000e+01 4.300000000000000000e+01 5.800000000000000000e+01
-2.465273737907409668e-01 -3.646925389766693115e-01 5.429616928100585938e+00 3.900000000000000000e+01 2.800000000000000000e+01 5.800000000000000000e+01
-2.596625685691833496e-01 -1.878538727760314941e+00 5.778285503387451172e+00 1.270000000000000000e+02 1.050000000000000000e+02 1.200000000000000000e+02
-2.425265908241271973e-01 -1.280504465103149414e-01 5.411897182464599609e+00 4.000000000000000000e+01 2.900000000000000000e+01 6.200000000000000000e+01
-2.576512098312377930e-01 -1.849393844604492188e+00 5.752009868621826172e+00 5.700000000000000000e+01 4.200000000000000000e+01 5.800000000000000000e+01
-2.566266953945159912e-01 -1.904156088829040527e+00 5.763569355010986328e+00 8.000000000000000000e+01 6.200000000000000000e+01 9.000000000000000000e+01
-2.566266953945159912e-01 -1.904156088829040527e+00 5.763569355010986328e+00 8.000000000000000000e+01 6.200000000000000000e+01 9.000000000000000000e+01
-2.398604303598403931e-01 4.024899005889892578e-02 5.405802249908447266e+00 3.200000000000000000e+01 2.300000000000000000e+01 5.100000000000000000e+01
-2.390461713075637817e-01 -3.274946808815002441e-01 5.428288459777832031e+00 2.800000000000000000e+01 2.400000000000000000e+01 5.000000000000000000e+01
-2.334471046924591064e-01 -7.764233350753784180e-01 5.306822776794433594e+00 8.700000000000000000e+01 7.400000000000000000e+01 1.280000000000000000e+02
-2.519987225532531738e-01 -1.588239312171936035e+00 5.739396572113037109e+00 6.400000000000000000e+01 4.600000000000000000e+01 6.500000000000000000e+01
-2.519987225532531738e-01 -1.588239312171936035e+00 5.739396572113037109e+00 6.400000000000000000e+01 4.600000000000000000e+01 6.500000000000000000e+01
-2.092166841030120850e-01 1.170199871063232422e+00 4.780199050903320312e+00 5.400000000000000000e+01 4.500000000000000000e+01 4.700000000000000000e+01
-2.353826910257339478e-01 -3.458177149295806885e-01 5.435462951660156250e+00 8.500000000000000000e+01 6.500000000000000000e+01 8.400000000000000000e+01
-2.353826910257339478e-01 -3.458177149295806885e-01 5.435462951660156250e+00 8.500000000000000000e+01 6.500000000000000000e+01 8.400000000000000000e+01
-2.085818946361541748e-01 1.099629163742065430e+00 4.849627494812011719e+00 1.010000000000000000e+02 8.600000000000000000e+01 1.320000000000000000e+02
-2.273240685462951660e-01 3.035447895526885986e-01 5.369792938232421875e+00 4.400000000000000000e+01 3.500000000000000000e+01 6.200000000000000000e+01
-2.407005876302719116e-01 -1.840575456619262695e+00 5.754921436309814453e+00 1.240000000000000000e+02 1.050000000000000000e+02 1.220000000000000000e+02
-1.978626102209091187e-01 6.956916451454162598e-01 4.869092464447021484e+00 5.300000000000000000e+01 5.000000000000000000e+01 7.600000000000000000e+01
-2.313376963138580322e-01 -1.789248108863830566e+00 5.744772911071777344e+00 5.700000000000000000e+01 4.400000000000000000e+01 6.600000000000000000e+01
-1.918695569038391113e-01 1.124440670013427734e+00 4.835492134094238281e+00 4.200000000000000000e+01 3.300000000000000000e+01 4.800000000000000000e+01
-2.251542955636978149e-01 -1.767951130867004395e+00 5.726013183593750000e+00 1.260000000000000000e+02 1.000000000000000000e+02 1.150000000000000000e+02
-2.015658915042877197e-01 -8.704935908317565918e-01 5.264153957366943359e+00 3.400000000000000000e+01 2.600000000000000000e+01 7.600000000000000000e+01
-2.146463692188262939e-01 -1.783738493919372559e+00 5.716111183166503906e+00 5.500000000000000000e+01 3.900000000000000000e+01 6.400000000000000000e+01
-2.004235088825225830e-01 2.908700406551361084e-01 5.356261730194091797e+00 4.800000000000000000e+01 3.800000000000000000e+01 7.400000000000000000e+01
-1.999297291040420532e-01 -3.648387193679809570e-01 5.379541397094726562e+00 2.700000000000000000e+01 2.000000000000000000e+01 4.800000000000000000e+01
-1.999297291040420532e-01 -3.648387193679809570e-01 5.379541397094726562e+00 2.700000000000000000e+01 2.000000000000000000e+01 4.800000000000000000e+01
-1.774924099445343018e-01 1.105017185211181641e+00 4.841208457946777344e+00 1.170000000000000000e+02 9.400000000000000000e+01 1.380000000000000000e+02
-1.804288923740386963e-01 6.407337188720703125e-01 4.946221351623535156e+00 7.300000000000000000e+01 6.200000000000000000e+01 9.100000000000000000e+01
-1.804288923740386963e-01 6.407337188720703125e-01 4.946221351623535156e+00 7.300000000000000000e+01 6.200000000000000000e+01 9.100000000000000000e+01
-2.072570025920867920e-01 -1.574545264244079590e+00 5.687745094299316406e+00 8.600000000000000000e+01 6.900000000000000000e+01 8.600000000000000000e+01
-1.770180165767669678e-01 7.162002921104431152e-01 4.860465526580810547e+00 7.700000000000000000e+01 6.600000000000000000e+01 1.130000000000000000e+02
-2.089725434780120850e-01 -1.457083106040954590e+00 5.733003139495849609e+00 1.110000000000000000e+02 8.800000000000000000e+01 1.160000000000000000e+02
-1.741992384195327759e-01 7.698180079460144043e-01 4.856829166412353516e+00 1.600000000000000000e+01 1.900000000000000000e+01 3.500000000000000000e+01
-1.673640608787536621e-01 1.091966032981872559e+00 4.858572959899902344e+00 8.100000000000000000e+01 7.000000000000000000e+01 9.100000000000000000e+01
-1.597205102443695068e-01 1.122846841812133789e+00 4.809952735900878906e+00 4.300000000000000000e+01 3.300000000000000000e+01 6.100000000000000000e+01
-1.770608425140380859e-01 -3.607560321688652039e-02 5.348224163055419922e+00 3.000000000000000000e+01 2.300000000000000000e+01 5.200000000000000000e+01
-1.557306498289108276e-01 1.194474935531616211e+00 4.799126625061035156e+00 4.300000000000000000e+01 3.700000000000000000e+01 4.600000000000000000e+01
-1.725563108921051025e-01 3.087655901908874512e-01 5.320909023284912109e+00 4.100000000000000000e+01 3.300000000000000000e+01 6.200000000000000000e+01
-1.539215445518493652e-01 9.917417168617248535e-01 4.879524230957031250e+00 2.900000000000000000e+01 2.600000000000000000e+01 4.400000000000000000e+01
-1.505341231822967529e-01 9.031426310539245605e-01 4.874709129333496094e+00 3.200000000000000000e+01 2.600000000000000000e+01 4.500000000000000000e+01
-1.462670117616653442e-01 5.125448107719421387e-01 4.926596641540527344e+00 4.400000000000000000e+01 3.900000000000000000e+01 5.900000000000000000e+01
-1.517134904861450195e-01 -6.333884000778198242e-01 5.221488475799560547e+00 8.400000000000000000e+01 6.700000000000000000e+01 1.140000000000000000e+02
-1.512057781219482422e-01 -2.272360622882843018e-01 5.266015052795410156e+00 2.800000000000000000e+01 2.300000000000000000e+01 4.900000000000000000e+01
-1.584241390228271484e-01 -1.727533698081970215e+00 5.660427093505859375e+00 1.150000000000000000e+02 9.700000000000000000e+01 1.120000000000000000e+02
-1.427865922451019287e-01 3.081979043781757355e-02 5.287082195281982422e+00 6.100000000000000000e+01 4.600000000000000000e+01 9.500000000000000000e+01
-1.377563029527664185e-01 -7.563478350639343262e-01 5.219929218292236328e+00 3.100000000000000000e+01 2.700000000000000000e+01 5.500000000000000000e+01
-1.226522251963615417e-01 5.143282413482666016e-01 4.898083209991455078e+00 5.300000000000000000e+01 4.800000000000000000e+01 6.400000000000000000e+01
-1.210684180259704590e-01 5.149103403091430664e-01 4.906732082366943359e+00 5.300000000000000000e+01 4.800000000000000000e+01 6.400000000000000000e+01
-1.160152703523635864e-01 9.862727522850036621e-01 4.839575767517089844e+00 7.100000000000000000e+01 6.100000000000000000e+01 1.080000000000000000e+02
-1.268232911825180054e-01 -7.754929363727569580e-02 5.297864437103271484e+00 4.200000000000000000e+01 3.900000000000000000e+01 8.100000000000000000e+01
-1.220649778842926025e-01 -8.281911015510559082e-01 5.149816036224365234e+00 1.180000000000000000e+02 1.000000000000000000e+02 1.530000000000000000e+02
-1.220649778842926025e-01 -8.281911015510559082e-01 5.149816036224365234e+00 1.180000000000000000e+02 1.000000000000000000e+02 1.530000000000000000e+02
-1.251968592405319214e-01 1.651050597429275513e-01 5.294937610626220703e+00 2.000000000000000000e+01 2.200000000000000000e+01 6.200000000000000000e+01
-1.101739183068275452e-01 8.884588479995727539e-01 4.842062950134277344e+00 3.500000000000000000e+01 3.300000000000000000e+01 3.900000000000000000e+01
-1.010272800922393799e-01 9.882896542549133301e-01 4.825501441955566406e+00 4.100000000000000000e+01 3.600000000000000000e+01 5.100000000000000000e+01
-9.634188562631607056e-02 5.171821713447570801e-01 4.865904331207275391e+00 9.500000000000000000e+01 8.400000000000000000e+01 1.260000000000000000e+02
-1.000403761863708496e-01 -3.819950819015502930e-01 5.220497131347656250e+00 3.600000000000000000e+01 3.200000000000000000e+01 5.100000000000000000e+01
-1.003433242440223694e-01 -6.255578994750976562e-02 5.278625011444091797e+00 3.600000000000000000e+01 2.400000000000000000e+01 5.000000000000000000e+01
-9.035227447748184204e-02 4.621635004878044128e-02 5.240498542785644531e+00 4.300000000000000000e+01 3.400000000000000000e+01 6.100000000000000000e+01
-9.035227447748184204e-02 4.621635004878044128e-02 5.240498542785644531e+00 4.300000000000000000e+01 3.400000000000000000e+01 6.100000000000000000e+01
-8.879536390304565430e-02 6.568413227796554565e-02 5.231029510498046875e+00 8.400000000000000000e+01 7.200000000000000000e+01 1.250000000000000000e+02
-8.879536390304565430e-02 6.568413227796554565e-02 5.231029510498046875e+00 8.400000000000000000e+01 7.200000000000000000e+01 1.250000000000000000e+02
-8.654524385929107666e-02 1.339493393898010254e-01 5.225303649902343750e+00 5.800000000000000000e+01 5.300000000000000000e+01 1.040000000000000000e+02
-8.426418900489807129e-02 1.541725695133209229e-01 5.236941337585449219e+00 1.900000000000000000e+01 1.500000000000000000e+01 3.500000000000000000e+01
-7.922557741403579712e-02 2.332879453897476196e-01 5.239132404327392578e+00 4.200000000000000000e+01 3.400000000000000000e+01 6.100000000000000000e+01
-7.039988040924072266e-02 5.065060257911682129e-01 4.840709686279296875e+00 9.700000000000000000e+01 8.100000000000000000e+01 1.290000000000000000e+02
-7.379734516143798828e-02 7.999263703823089600e-02 5.227892398834228516e+00 3.200000000000000000e+01 2.400000000000000000e+01 5.500000000000000000e+01
-7.379734516143798828e-02 7.999263703823089600e-02 5.227892398834228516e+00 3.200000000000000000e+01 2.400000000000000000e+01 5.500000000000000000e+01
-7.318102568387985229e-02 1.181428283452987671e-01 5.228307247161865234e+00 2.800000000000000000e+01 2.000000000000000000e+01 3.500000000000000000e+01
-7.318102568387985229e-02 1.181428283452987671e-01 5.228307247161865234e+00 2.800000000000000000e+01 2.000000000000000000e+01 3.500000000000000000e+01
-7.266419380903244019e-02 -1.707604765892028809e+00 5.583866119384765625e+00 7.000000000000000000e+01 5.200000000000000000e+01 7.200000000000000000e+01
-7.128876447677612305e-02 -1.361493468284606934e+00 5.547824859619140625e+00 8.500000000000000000e+01 7.300000000000000000e+01 9.800000000000000000e+01
-5.642801895737648010e-02 1.083902359008789062e+00 4.749655246734619141e+00 8.600000000000000000e+01 7.000000000000000000e+01 9.900000000000000000e+01
-6.308009475469589233e-02 -1.219298601150512695e+00 5.478372573852539062e+00 1.340000000000000000e+02 1.040000000000000000e+02 1.250000000000000000e+02
-5.415810644626617432e-02 5.179131627082824707e-01 4.814156055450439453e+00 4.200000000000000000e+01 3.800000000000000000e+01 4.300000000000000000e+01
-4.969560354948043823e-02 8.188258409500122070e-01 4.778964996337890625e+00 4.300000000000000000e+01 3.600000000000000000e+01 6.300000000000000000e+01
-4.229426011443138123e-02 -1.598175883293151855e+00 5.547313213348388672e+00 7.200000000000000000e+01 5.600000000000000000e+01 8.000000000000000000e+01
-3.018030524253845215e-02 -1.188085317611694336e+00 5.466417312622070312e+00 1.350000000000000000e+02 1.120000000000000000e+02 1.320000000000000000e+02
-2.796242944896221161e-02 -1.105011463165283203e+00 5.448421478271484375e+00 2.200000000000000000e+01 1.800000000000000000e+01 3.200000000000000000e+01
-2.294502779841423035e-02 5.347427129745483398e-01 4.798364639282226562e+00 1.000000000000000000e+02 8.300000000000000000e+01 1.270000000000000000e+02
-1.927870698273181915e-02 1.015658617019653320e+00 4.740739345550537109e+00 5.700000000000000000e+01 4.100000000000000000e+01 7.200000000000000000e+01
-7.858380675315856934e-02 2.318885564804077148e+00 2.014864730834960938e+01 4.000000000000000000e+01 3.500000000000000000e+01 5.400000000000000000e+01
-1.598318479955196381e-02 8.173720836639404297e-01 4.758400440216064453e+00 5.100000000000000000e+01 4.200000000000000000e+01 6.200000000000000000e+01
-1.598318479955196381e-02 8.173720836639404297e-01 4.758400440216064453e+00 5.100000000000000000e+01 4.200000000000000000e+01 6.200000000000000000e+01
-1.698442548513412476e-02 -4.048178791999816895e-01 5.107354640960693359e+00 1.200000000000000000e+02 1.010000000000000000e+02 1.480000000000000000e+02
-1.785480976104736328e-02 -1.803098678588867188e+00 5.532234191894531250e+00 5.300000000000000000e+01 3.800000000000000000e+01 6.000000000000000000e+01
-1.493408530950546265e-02 -1.152645945549011230e+00 5.459091186523437500e+00 3.100000000000000000e+01 2.700000000000000000e+01 5.900000000000000000e+01
-1.262720674276351929e-02 6.510161161422729492e-01 4.763315677642822266e+00 9.400000000000000000e+01 8.000000000000000000e+01 1.330000000000000000e+02
-1.261079870164394379e-02 -1.211933374404907227e+00 5.472270965576171875e+00 9.900000000000000000e+01 7.900000000000000000e+01 1.030000000000000000e+02
5.640189629048109055e-03 -1.480143904685974121e+00 5.493400096893310547e+00 8.500000000000000000e+01 6.500000000000000000e+01 8.500000000000000000e+01
5.694431252777576447e-03 -1.602898716926574707e+00 5.488205909729003906e+00 7.100000000000000000e+01 5.500000000000000000e+01 8.000000000000000000e+01
7.320385426282882690e-03 -6.764703392982482910e-01 5.285735130310058594e+00 2.500000000000000000e+01 2.600000000000000000e+01 6.300000000000000000e+01
1.007178146392107010e-02 -1.560361146926879883e+00 5.477691650390625000e+00 8.700000000000000000e+01 6.700000000000000000e+01 9.400000000000000000e+01
1.407798845320940018e-02 -8.869510889053344727e-01 5.251180648803710938e+00 1.210000000000000000e+02 9.800000000000000000e+01 1.340000000000000000e+02
1.545681059360504150e-02 1.183181524276733398e+00 4.609865188598632812e+00 4.700000000000000000e+01 4.300000000000000000e+01 5.200000000000000000e+01
2.621898055076599121e-02 -1.721783757209777832e+00 5.476246356964111328e+00 8.000000000000000000e+01 6.500000000000000000e+01 8.800000000000000000e+01
2.621898055076599121e-02 -1.721783757209777832e+00 5.476246356964111328e+00 8.000000000000000000e+01 6.500000000000000000e+01 8.800000000000000000e+01
4.196585342288017273e-02 4.018474519252777100e-01 4.903345584869384766e+00 1.130000000000000000e+02 9.700000000000000000e+01 1.500000000000000000e+02
5.175513401627540588e-02 3.000853955745697021e-01 5.104595661163330078e+00 3.400000000000000000e+01 2.600000000000000000e+01 5.600000000000000000e+01
6.077354028820991516e-02 5.076331496238708496e-01 4.708302974700927734e+00 1.000000000000000000e+02 8.400000000000000000e+01 1.290000000000000000e+02
7.230731844902038574e-02 -1.165012359619140625e+00 5.390442848205566406e+00 6.900000000000000000e+01 5.300000000000000000e+01 8.100000000000000000e+01
7.264836132526397705e-02 -1.204589366912841797e+00 5.385532379150390625e+00 9.500000000000000000e+01 7.400000000000000000e+01 1.060000000000000000e+02
6.449868530035018921e-02 4.927556216716766357e-01 4.717012882232666016e+00 4.200000000000000000e+01 3.400000000000000000e+01 6.100000000000000000e+01
6.472033262252807617e-02 6.206513643264770508e-01 4.705021858215332031e+00 6.000000000000000000e+01 4.900000000000000000e+01 7.000000000000000000e+01
6.990852952003479004e-02 7.427495718002319336e-01 4.624581336975097656e+00 4.500000000000000000e+01 4.300000000000000000e+01 8.000000000000000000e+01
8.167458325624465942e-02 -4.755392968654632568e-01 5.327253341674804688e+00 6.000000000000000000e+01 4.600000000000000000e+01 6.300000000000000000e+01
8.432737737894058228e-02 -9.301224946975708008e-01 5.358426570892333984e+00 6.900000000000000000e+01 5.500000000000000000e+01 8.300000000000000000e+01
8.432737737894058228e-02 -9.301224946975708008e-01 5.358426570892333984e+00 6.900000000000000000e+01 5.500000000000000000e+01 8.300000000000000000e+01
7.785939425230026245e-02 -1.205921769142150879e-01 4.833992481231689453e+00 2.300000000000000000e+01 1.700000000000000000e+01 5.300000000000000000e+01
7.886505126953125000e-02 8.850018978118896484e-01 4.647597312927246094e+00 4.700000000000000000e+01 3.500000000000000000e+01 5.900000000000000000e+01
7.962292432785034180e-02 9.677671790122985840e-01 4.633126735687255859e+00 5.800000000000000000e+01 4.900000000000000000e+01 6.500000000000000000e+01
8.077527582645416260e-02 7.660418748855590820e-01 4.656655788421630859e+00 2.000000000000000000e+01 2.200000000000000000e+01 3.600000000000000000e+01
8.077527582645416260e-02 7.660418748855590820e-01 4.656655788421630859e+00 2.000000000000000000e+01 2.200000000000000000e+01 3.600000000000000000e+01
8.422779291868209839e-02 4.943318367004394531e-01 4.682631969451904297e+00 3.900000000000000000e+01 3.300000000000000000e+01 4.300000000000000000e+01
8.422779291868209839e-02 4.943318367004394531e-01 4.682631969451904297e+00 3.900000000000000000e+01 3.300000000000000000e+01 4.300000000000000000e+01
9.669594466686248779e-02 -1.149423480033874512e+00 5.367843151092529297e+00 7.100000000000000000e+01 5.400000000000000000e+01 7.700000000000000000e+01
9.669594466686248779e-02 -1.149423480033874512e+00 5.367843151092529297e+00 7.100000000000000000e+01 5.400000000000000000e+01 7.700000000000000000e+01
8.312379568815231323e-02 1.071545004844665527e+00 4.609717845916748047e+00 9.800000000000000000e+01 7.700000000000000000e+01 1.190000000000000000e+02
8.823901414871215820e-02 -1.881421357393264771e-01 4.857595443725585938e+00 9.400000000000000000e+01 8.100000000000000000e+01 1.330000000000000000e+02
1.049463301897048950e-01 -1.090810298919677734e+00 5.343175888061523438e+00 1.260000000000000000e+02 1.110000000000000000e+02 1.340000000000000000e+02
9.276691824197769165e-02 5.603837966918945312e-01 4.678318977355957031e+00 8.900000000000000000e+01 7.600000000000000000e+01 1.230000000000000000e+02
1.076071411371231079e-01 -1.634910702705383301e+00 5.398874759674072266e+00 7.000000000000000000e+01 5.600000000000000000e+01 7.800000000000000000e+01
1.070119217038154602e-01 3.172955513000488281e-01 4.924839019775390625e+00 3.000000000000000000e+01 2.800000000000000000e+01 7.300000000000000000e+01
1.117931827902793884e-01 1.780806332826614380e-01 5.049764633178710938e+00 2.600000000000000000e+01 2.100000000000000000e+01 5.000000000000000000e+01
1.141194626688957214e-01 2.693876922130584717e-01 4.914806365966796875e+00 5.400000000000000000e+01 3.900000000000000000e+01 5.700000000000000000e+01
1.319754272699356079e-01 -8.395068645477294922e-01 5.307851314544677734e+00 7.300000000000000000e+01 6.100000000000000000e+01 9.100000000000000000e+01
1.370626538991928101e-01 -8.113853931427001953e-01 5.301399230957031250e+00 7.900000000000000000e+01 5.900000000000000000e+01 7.600000000000000000e+01
1.213575154542922974e-01 6.532264351844787598e-01 4.561198234558105469e+00 1.220000000000000000e+02 1.040000000000000000e+02 1.470000000000000000e+02
1.209426894783973694e-01 1.073694825172424316e+00 4.522772312164306641e+00 1.400000000000000000e+02 1.160000000000000000e+02 1.630000000000000000e+02
1.531735807657241821e-01 -1.192404747009277344e+00 5.316431045532226562e+00 7.100000000000000000e+01 5.400000000000000000e+01 7.300000000000000000e+01
1.350744366645812988e-01 1.066812634468078613e+00 4.568709373474121094e+00 8.700000000000000000e+01 6.700000000000000000e+01 1.190000000000000000e+02
1.453171819448471069e-01 5.017159506678581238e-02 4.894309520721435547e+00 1.800000000000000000e+01 1.500000000000000000e+01 4.000000000000000000e+01
1.581024378538131714e-01 -6.428762078285217285e-01 5.278186321258544922e+00 5.300000000000000000e+01 4.300000000000000000e+01 6.500000000000000000e+01
1.595663726329803467e-01 -8.204702734947204590e-01 5.286730289459228516e+00 8.100000000000000000e+01 6.700000000000000000e+01 8.800000000000000000e+01
1.556829065084457397e-01 -3.598472177982330322e-01 5.130971431732177734e+00 9.400000000000000000e+01 7.500000000000000000e+01 1.130000000000000000e+02
1.556829065084457397e-01 -3.598472177982330322e-01 5.130971431732177734e+00 9.400000000000000000e+01 7.500000000000000000e+01 1.130000000000000000e+02
1.632798463106155396e-01 -8.368210196495056152e-01 5.279634952545166016e+00 1.320000000000000000e+02 1.140000000000000000e+02 1.370000000000000000e+02
1.632798463106155396e-01 -8.368210196495056152e-01 5.279634952545166016e+00 1.320000000000000000e+02 1.140000000000000000e+02 1.370000000000000000e+02
1.519065201282501221e-01 3.103004693984985352e-01 4.858826160430908203e+00 2.900000000000000000e+01 2.600000000000000000e+01 5.800000000000000000e+01
1.705448925495147705e-01 -1.094062924385070801e+00 5.297888278961181641e+00 8.200000000000000000e+01 6.800000000000000000e+01 9.900000000000000000e+01
1.738866716623306274e-01 -9.452437162399291992e-01 5.264698982238769531e+00 6.800000000000000000e+01 5.300000000000000000e+01 8.300000000000000000e+01
1.577365398406982422e-01 1.098117709159851074e+00 4.549754142761230469e+00 5.900000000000000000e+01 4.900000000000000000e+01 9.300000000000000000e+01
1.833613216876983643e-01 -3.314164876937866211e-01 5.228406429290771484e+00 6.700000000000000000e+01 5.300000000000000000e+01 7.000000000000000000e+01
1.655225902795791626e-01 5.732210278511047363e-01 4.680187702178955078e+00 3.200000000000000000e+01 2.800000000000000000e+01 5.100000000000000000e+01
1.910316795110702515e-01 -1.078216552734375000e+00 5.267562866210937500e+00 1.340000000000000000e+02 1.150000000000000000e+02 1.350000000000000000e+02
1.947999596595764160e-01 -8.329848647117614746e-01 5.256347656250000000e+00 6.600000000000000000e+01 5.800000000000000000e+01 9.000000000000000000e+01
1.947999596595764160e-01 -8.329848647117614746e-01 5.256347656250000000e+00 6.600000000000000000e+01 5.800000000000000000e+01 9.000000000000000000e+01
1.986204236745834351e-01 -8.484236598014831543e-01 5.238622665405273438e+00 1.180000000000000000e+02 1.030000000000000000e+02 1.290000000000000000e+02
2.028207629919052124e-01 -1.507785201072692871e+00 5.299557209014892578e+00 8.200000000000000000e+01 6.100000000000000000e+01 8.400000000000000000e+01
2.023144960403442383e-01 -1.101699590682983398e+00 5.266469478607177734e+00 4.900000000000000000e+01 4.200000000000000000e+01 6.800000000000000000e+01
1.878813356161117554e-01 4.905534386634826660e-01 4.703248500823974609e+00 3.100000000000000000e+01 2.800000000000000000e+01 3.700000000000000000e+01
2.121924608945846558e-01 -1.487016201019287109e+00 5.282827854156494141e+00 1.420000000000000000e+02 1.230000000000000000e+02 1.390000000000000000e+02
2.136825770139694214e-01 -1.527464628219604492e+00 5.285274982452392578e+00 6.300000000000000000e+01 5.100000000000000000e+01 7.600000000000000000e+01
2.128010541200637817e-01 -1.086989521980285645e+00 5.258019447326660156e+00 1.290000000000000000e+02 1.100000000000000000e+02 1.270000000000000000e+02
2.038877159357070923e-01 6.202425360679626465e-01 4.707455158233642578e+00 6.100000000000000000e+01 4.500000000000000000e+01 7.600000000000000000e+01
2.426862418651580811e-01 -1.114353179931640625e+00 5.220132827758789062e+00 5.800000000000000000e+01 5.000000000000000000e+01 7.400000000000000000e+01
2.426862418651580811e-01 -1.114353179931640625e+00 5.220132827758789062e+00 5.800000000000000000e+01 5.000000000000000000e+01 7.400000000000000000e+01
2.452506721019744873e-01 -1.481692910194396973e+00 5.253808498382568359e+00 1.270000000000000000e+02 1.110000000000000000e+02 1.290000000000000000e+02
2.340622097253799438e-01 5.075796246528625488e-01 4.731544971466064453e+00 4.500000000000000000e+01 3.300000000000000000e+01 6.000000000000000000e+01
2.601188421249389648e-01 -1.509131908416748047e+00 5.241870880126953125e+00 6.600000000000000000e+01 4.600000000000000000e+01 6.500000000000000000e+01
2.657755613327026367e-01 -8.229763507843017578e-01 5.180701255798339844e+00 6.200000000000000000e+01 5.400000000000000000e+01 7.600000000000000000e+01
2.657755613327026367e-01 -8.229763507843017578e-01 5.180701255798339844e+00 6.200000000000000000e+01 5.400000000000000000e+01 7.600000000000000000e+01
2.679130434989929199e-01 -1.365238666534423828e+00 5.212894439697265625e+00 7.800000000000000000e+01 6.800000000000000000e+01 9.600000000000000000e+01
2.718300819396972656e-01 -1.346980333328247070e+00 5.211046695709228516e+00 1.360000000000000000e+02 1.160000000000000000e+02 1.320000000000000000e+02
2.858663797378540039e-01 -9.422858953475952148e-01 5.157430171966552734e+00 6.400000000000000000e+01 5.200000000000000000e+01 7.200000000000000000e+01
3.035286366939544678e-01 -1.516226291656494141e+00 5.196748733520507812e+00 8.200000000000000000e+01 6.400000000000000000e+01 9.400000000000000000e+01
3.058757185935974121e-01 -9.406551718711853027e-01 5.150464534759521484e+00 1.210000000000000000e+02 1.010000000000000000e+02 1.220000000000000000e+02
3.048349916934967041e-01 -3.415817320346832275e-01 5.091603755950927734e+00 1.320000000000000000e+02 1.140000000000000000e+02 1.390000000000000000e+02
3.109177947044372559e-01 -1.009828925132751465e+00 5.145942687988281250e+00 8.100000000000000000e+01 6.500000000000000000e+01 8.800000000000000000e+01
3.163219094276428223e-01 -1.201774716377258301e+00 5.169775485992431641e+00 7.700000000000000000e+01 5.900000000000000000e+01 7.600000000000000000e+01
3.203386962413787842e-01 -1.103674650192260742e+00 5.136514663696289062e+00 7.200000000000000000e+01 6.300000000000000000e+01 8.600000000000000000e+01
3.203386962413787842e-01 -1.103674650192260742e+00 5.136514663696289062e+00 7.200000000000000000e+01 6.300000000000000000e+01 8.600000000000000000e+01
3.186914026737213135e-01 -6.266416907310485840e-01 5.108365058898925781e+00 1.290000000000000000e+02 1.110000000000000000e+02 1.330000000000000000e+02
3.208557069301605225e-01 -6.488839983940124512e-01 5.104380607604980469e+00 6.000000000000000000e+01 4.700000000000000000e+01 6.200000000000000000e+01
3.210059702396392822e-01 -7.788492832332849503e-03 4.935386180877685547e+00 2.800000000000000000e+01 2.600000000000000000e+01 5.900000000000000000e+01
3.514213860034942627e-01 -1.510369658470153809e+00 5.153148651123046875e+00 1.330000000000000000e+02 1.080000000000000000e+02 1.220000000000000000e+02
3.565361797809600830e-01 -6.442659497261047363e-01 5.071558475494384766e+00 1.350000000000000000e+02 1.110000000000000000e+02 1.280000000000000000e+02
3.581190407276153564e-01 -6.591465473175048828e-01 5.083237171173095703e+00 7.400000000000000000e+01 5.600000000000000000e+01 7.100000000000000000e+01
3.613468706607818604e-01 -1.111418604850769043e+00 5.094692230224609375e+00 6.600000000000000000e+01 5.000000000000000000e+01 7.500000000000000000e+01
3.689399659633636475e-01 -3.655423223972320557e-01 5.046357631683349609e+00 8.200000000000000000e+01 6.800000000000000000e+01 8.800000000000000000e+01
3.946367800235748291e-01 -1.517813324928283691e+00 5.103972434997558594e+00 1.210000000000000000e+02 1.020000000000000000e+02 1.170000000000000000e+02
3.945080637931823730e-01 -1.417656183242797852e+00 5.094606876373291016e+00 1.240000000000000000e+02 1.090000000000000000e+02 1.330000000000000000e+02
3.968915343284606934e-01 -1.504863619804382324e+00 5.110076904296875000e+00 6.800000000000000000e+01 5.500000000000000000e+01 7.600000000000000000e+01
3.936770260334014893e-01 -5.060811638832092285e-01 5.026658058166503906e+00 4.900000000000000000e+01 4.300000000000000000e+01 6.500000000000000000e+01
3.942083716392517090e-01 -3.567790985107421875e-01 5.021717548370361328e+00 1.450000000000000000e+02 1.210000000000000000e+02 1.400000000000000000e+02
3.975432515144348145e-01 -6.856345534324645996e-01 5.048785209655761719e+00 8.400000000000000000e+01 7.100000000000000000e+01 8.900000000000000000e+01
4.079976975917816162e-01 -1.676873683929443359e+00 5.113871574401855469e+00 7.600000000000000000e+01 6.000000000000000000e+01 9.200000000000000000e+01
3.897641599178314209e-01 7.596323490142822266e-01 4.867411613464355469e+00 3.300000000000000000e+01 3.300000000000000000e+01 6.800000000000000000e+01
4.105387330055236816e-01 4.081583619117736816e-01 4.942546367645263672e+00 1.370000000000000000e+02 1.120000000000000000e+02 1.210000000000000000e+02
4.121798574924468994e-01 2.728585898876190186e-01 4.950247287750244141e+00 1.210000000000000000e+02 9.800000000000000000e+01 1.090000000000000000e+02
4.112136065959930420e-01 5.057849884033203125e-01 4.913953304290771484e+00 6.000000000000000000e+01 4.400000000000000000e+01 6.000000000000000000e+01
